# .PCD v0.7 - Point Cloud Data file format
VERSION 0.7
FIELDS x y z
SIZE 4 4 4
TYPE F F F
COUNT 1 1 1
WIDTH 1848
HEIGHT 1
VIEWPOINT 0 0 0 1 0 0 0
POINTS 1848
DATA ascii
6.9099998 5.9099998 -0.74000001
6.9099998 5.9099998 -0.63999999
6.9099998 5.9099998 -0.54000002
6.9099998 5.9099998 -0.44
6.9099998 5.9099998 -0.34
6.9099998 5.9099998 -0.23999999
6.9099998 5.9099998 -0.14
6.9099998 5.9099998 -0.039999999
6.9099998 5.9099998 0.059999999
6.9099998 5.9099998 0.16
6.9099998 5.9099998 0.25999999
6.9099998 5.9099998 0.36000001
6.9099998 5.9099998 0.46000001
6.9099998 5.9099998 0.56
6.9099998 5.9099998 0.66000003
6.9099998 5.9099998 0.75999999
6.9099998 5.9099998 0.86000001
6.9099998 5.9099998 0.95999998
6.9099998 5.9099998 1.0599999
6.9099998 5.9099998 1.16
6.9099998 5.9099998 1.26
6.9099998 5.9099998 1.36
6.9099998 5.9099998 1.46
6.9099998 5.9099998 1.5599999
6.9099998 5.9099998 1.66
6.9099998 5.9099998 1.76
6.9099998 5.9099998 1.86
6.9099998 5.9099998 1.96
6.9099998 5.9099998 2.0599999
6.9099998 5.9099998 2.1600001
6.9099998 5.9099998 2.26
6.9099998 5.9099998 2.3599999
6.9099998 5.9099998 2.46
6.9099998 5.9099998 2.5599999
6.9099998 5.9099998 2.6600001
6.9099998 5.9099998 2.76
6.9099998 5.9099998 2.8599999
6.9099998 5.9099998 2.96
6.9099998 5.9099998 3.0599999
6.9099998 5.9099998 3.1600001
6.9099998 5.9099998 3.26
6.9099998 5.9099998 3.3599999
6.9099998 5.9099998 3.46
6.9099998 5.9099998 3.5599999
6.9099998 5.9099998 3.6600001
6.9099998 5.9099998 3.76
6.9099998 5.9099998 3.8599999
6.9099998 5.9099998 3.96
6.9099998 5.9099998 4.0599999
6.9099998 5.9099998 4.1599998
6.9099998 5.9099998 4.2600002
6.9099998 5.9099998 4.3600001
6.9099998 5.9099998 4.46
6.9099998 5.9099998 4.5599999
6.9099998 5.9099998 4.6599998
6.9099998 5.9099998 4.7600002
6.9099998 5.9099998 4.8600001
6.9099998 5.9099998 4.96
6.9099998 5.9099998 5.0599999
6.9099998 5.9099998 5.1599998
6.9099998 5.9099998 5.2600002
6.9099998 5.9099998 5.3600001
6.9099998 5.9099998 5.46
6.9099998 5.9099998 5.5599999
6.9099998 5.9099998 5.6599998
6.9099998 5.9099998 5.7600002
6.9099998 5.9099998 5.8600001
6.9099998 5.9099998 5.96
6.9099998 5.9099998 6.0599999
6.9099998 5.9099998 6.1599998
6.9099998 5.9099998 6.2600002
6.9099998 5.9099998 6.3600001
6.9099998 5.9099998 6.46
6.9099998 5.9099998 6.5599999
6.9099998 5.9099998 6.6599998
6.9099998 5.9099998 6.7600002
6.9099998 5.9099998 6.8600001
6.9099998 6.0100002 -0.94
6.9099998 6.0100002 -0.83999997
6.9099998 6.0100002 -0.74000001
6.9099998 6.0100002 -0.63999999
6.9099998 6.0100002 -0.54000002
6.9099998 6.0100002 -0.44
6.9099998 6.0100002 -0.34
6.9099998 6.0100002 -0.23999999
6.9099998 6.0100002 -0.14
6.9099998 6.0100002 -0.039999999
6.9099998 6.0100002 0.059999999
6.9099998 6.0100002 0.16
6.9099998 6.0100002 0.25999999
6.9099998 6.0100002 0.36000001
6.9099998 6.0100002 0.46000001
6.9099998 6.0100002 0.56
6.9099998 6.0100002 0.66000003
6.9099998 6.0100002 0.75999999
6.9099998 6.0100002 0.86000001
6.9099998 6.0100002 0.95999998
6.9099998 6.0100002 1.0599999
6.9099998 6.0100002 1.16
6.9099998 6.0100002 1.26
6.9099998 6.0100002 1.36
6.9099998 6.0100002 1.46
6.9099998 6.0100002 1.5599999
6.9099998 6.0100002 1.66
6.9099998 6.0100002 1.76
6.9099998 6.0100002 1.86
6.9099998 6.0100002 1.96
6.9099998 6.0100002 2.0599999
6.9099998 6.0100002 2.1600001
6.9099998 6.0100002 2.26
6.9099998 6.0100002 2.3599999
6.9099998 6.0100002 2.46
6.9099998 6.0100002 2.5599999
6.9099998 6.0100002 2.6600001
6.9099998 6.0100002 2.76
6.9099998 6.0100002 2.8599999
6.9099998 6.0100002 2.96
6.9099998 6.0100002 3.0599999
6.9099998 6.0100002 3.1600001
6.9099998 6.0100002 3.26
6.9099998 6.0100002 3.3599999
6.9099998 6.0100002 3.46
6.9099998 6.0100002 3.5599999
6.9099998 6.0100002 3.6600001
6.9099998 6.0100002 3.76
6.9099998 6.0100002 3.8599999
6.9099998 6.0100002 3.96
6.9099998 6.0100002 4.0599999
6.9099998 6.0100002 4.1599998
6.9099998 6.0100002 4.2600002
6.9099998 6.0100002 4.3600001
6.9099998 6.0100002 4.46
6.9099998 6.0100002 4.5599999
6.9099998 6.0100002 4.6599998
6.9099998 6.0100002 4.7600002
6.9099998 6.0100002 4.8600001
6.9099998 6.0100002 4.96
6.9099998 6.0100002 5.0599999
6.9099998 6.0100002 5.1599998
6.9099998 6.0100002 5.2600002
6.9099998 6.0100002 5.3600001
6.9099998 6.1100001 -0.94
6.9099998 6.1100001 -0.83999997
6.9099998 6.1100001 -0.74000001
6.9099998 6.1100001 -0.63999999
6.9099998 6.1100001 -0.54000002
6.9099998 6.1100001 -0.44
6.9099998 6.1100001 -0.34
6.9099998 6.1100001 -0.23999999
6.9099998 6.1100001 -0.14
6.9099998 6.1100001 -0.039999999
6.9099998 6.1100001 0.059999999
6.9099998 6.1100001 0.16
6.9099998 6.1100001 0.25999999
6.9099998 6.1100001 0.36000001
6.9099998 6.1100001 0.46000001
6.9099998 6.1100001 0.56
6.9099998 6.1100001 0.66000003
6.9099998 6.1100001 0.75999999
6.9099998 6.1100001 0.86000001
6.9099998 6.1100001 0.95999998
6.9099998 6.1100001 1.0599999
6.9099998 6.1100001 1.16
6.9099998 6.1100001 1.26
6.9099998 6.1100001 1.36
6.9099998 6.1100001 1.46
6.9099998 6.1100001 1.5599999
6.9099998 6.1100001 1.66
6.9099998 6.1100001 1.76
6.9099998 6.1100001 1.86
6.9099998 6.1100001 1.96
6.9099998 6.1100001 2.0599999
6.9099998 6.1100001 2.1600001
6.9099998 6.1100001 2.26
6.9099998 6.1100001 2.3599999
6.9099998 6.1100001 2.46
6.9099998 6.1100001 2.5599999
6.9099998 6.1100001 2.6600001
6.9099998 6.1100001 2.76
6.9099998 6.1100001 2.8599999
6.9099998 6.1100001 2.96
6.9099998 6.1100001 3.0599999
6.9099998 6.1100001 3.1600001
6.9099998 6.1100001 3.26
6.9099998 6.1100001 3.3599999
6.9099998 6.1100001 3.46
6.9099998 6.1100001 3.5599999
6.9099998 6.1100001 3.6600001
6.9099998 6.1100001 3.76
6.9099998 6.1100001 3.8599999
6.9099998 6.1100001 3.96
6.9099998 6.1100001 4.0599999
6.9099998 6.1100001 4.1599998
6.9099998 6.1100001 4.2600002
6.9099998 6.1100001 4.3600001
6.9099998 6.1100001 4.46
6.9099998 6.1100001 4.5599999
6.9099998 6.1100001 4.6599998
6.9099998 6.1100001 4.7600002
6.9099998 6.1100001 4.8600001
6.9099998 6.1100001 4.96
6.9099998 6.1100001 5.0599999
6.9099998 6.1100001 5.1599998
6.9099998 6.1100001 5.2600002
6.9099998 6.1100001 5.3600001
6.9099998 6.1100001 5.46
6.9099998 6.1100001 5.5599999
6.9099998 6.1100001 5.6599998
6.9099998 6.1100001 5.7600002
6.9099998 6.1100001 5.8600001
6.9099998 6.1100001 5.96
6.9099998 6.1100001 6.0599999
6.9099998 6.1100001 6.1599998
6.9099998 6.1100001 6.2600002
6.9099998 6.1100001 6.3600001
6.9099998 6.1100001 6.46
6.9099998 6.1100001 6.5599999
6.9099998 6.1100001 6.6599998
6.9099998 6.1100001 6.7600002
6.9099998 6.1100001 6.8600001
6.9099998 6.1100001 6.96
6.9099998 6.1100001 7.0599999
6.9099998 6.1100001 7.1599998
6.9099998 6.1100001 7.2600002
6.9099998 6.1100001 7.3600001
6.9099998 6.1100001 7.46
6.9099998 6.1100001 7.5599999
6.9099998 6.1100001 7.6599998
6.9099998 6.1100001 7.7600002
6.9099998 6.1100001 7.8600001
6.9099998 6.21 -0.94
6.9099998 6.21 -0.83999997
6.9099998 6.21 -0.74000001
6.9099998 6.21 -0.63999999
6.9099998 6.21 -0.54000002
6.9099998 6.21 -0.44
6.9099998 6.21 -0.34
6.9099998 6.21 -0.23999999
6.9099998 6.21 -0.14
6.9099998 6.21 -0.039999999
6.9099998 6.21 0.059999999
6.9099998 6.21 0.16
6.9099998 6.21 0.25999999
6.9099998 6.21 0.36000001
6.9099998 6.21 0.46000001
6.9099998 6.21 0.56
6.9099998 6.21 0.66000003
6.9099998 6.21 0.75999999
6.9099998 6.21 0.86000001
6.9099998 6.21 0.95999998
6.9099998 6.21 1.0599999
6.9099998 6.21 1.16
6.9099998 6.21 1.26
6.9099998 6.21 1.36
6.9099998 6.21 1.46
6.9099998 6.21 1.5599999
6.9099998 6.21 1.66
6.9099998 6.21 1.76
6.9099998 6.21 1.86
6.9099998 6.21 1.96
6.9099998 6.21 2.0599999
6.9099998 6.21 2.1600001
6.9099998 6.21 2.26
6.9099998 6.21 2.3599999
6.9099998 6.21 2.46
6.9099998 6.21 2.5599999
6.9099998 6.21 2.6600001
6.9099998 6.21 2.76
6.9099998 6.21 2.8599999
6.9099998 6.21 2.96
6.9099998 6.21 3.0599999
6.9099998 6.21 3.1600001
6.9099998 6.21 3.26
6.9099998 6.21 3.3599999
6.9099998 6.21 3.46
6.9099998 6.21 3.5599999
6.9099998 6.21 3.6600001
6.9099998 6.21 3.76
6.9099998 6.21 3.8599999
6.9099998 6.21 3.96
6.9099998 6.21 4.0599999
6.9099998 6.21 4.1599998
6.9099998 6.21 4.2600002
6.9099998 6.21 4.3600001
6.9099998 6.21 4.46
6.9099998 6.21 4.5599999
6.9099998 6.21 4.6599998
6.9099998 6.21 4.7600002
6.9099998 6.21 4.8600001
6.9099998 6.21 4.96
6.9099998 6.21 5.0599999
6.9099998 6.21 5.1599998
6.9099998 6.21 5.2600002
6.9099998 6.21 5.3600001
6.9099998 6.21 5.46
6.9099998 6.21 5.5599999
6.9099998 6.21 5.6599998
6.9099998 6.21 5.7600002
7.0100002 5.71 -0.94
7.0100002 5.71 -0.83999997
7.0100002 5.71 -0.74000001
7.0100002 5.71 -0.63999999
7.0100002 5.71 -0.54000002
7.0100002 5.71 -0.44
7.0100002 5.71 -0.34
7.0100002 5.71 -0.23999999
7.0100002 5.71 -0.14
7.0100002 5.71 -0.039999999
7.0100002 5.71 0.059999999
7.0100002 5.71 0.16
7.0100002 5.71 0.25999999
7.0100002 5.71 0.36000001
7.0100002 5.71 0.46000001
7.0100002 5.71 0.56
7.0100002 5.71 0.66000003
7.0100002 5.71 0.75999999
7.0100002 5.71 0.86000001
7.0100002 5.71 0.95999998
7.0100002 5.71 1.0599999
7.0100002 5.71 1.16
7.0100002 5.71 1.26
7.0100002 5.71 1.36
7.0100002 5.71 1.46
7.0100002 5.71 1.5599999
7.0100002 5.71 1.66
7.0100002 5.71 1.76
7.0100002 5.71 1.86
7.0100002 5.71 1.96
7.0100002 5.71 2.0599999
7.0100002 5.71 2.1600001
7.0100002 5.71 2.26
7.0100002 5.71 2.3599999
7.0100002 5.71 2.46
7.0100002 5.71 2.5599999
7.0100002 5.71 2.6600001
7.0100002 5.71 2.76
7.0100002 5.71 2.8599999
7.0100002 5.71 2.96
7.0100002 5.71 3.0599999
7.0100002 5.71 3.1600001
7.0100002 5.71 3.26
7.0100002 5.71 3.3599999
7.0100002 5.71 3.46
7.0100002 5.71 3.5599999
7.0100002 5.71 3.6600001
7.0100002 5.71 3.76
7.0100002 5.71 3.8599999
7.0100002 5.71 3.96
7.0100002 5.71 4.0599999
7.0100002 5.71 4.1599998
7.0100002 5.71 4.2600002
7.0100002 5.71 4.3600001
7.0100002 5.71 4.46
7.0100002 5.71 4.5599999
7.0100002 5.71 4.6599998
7.0100002 5.71 4.7600002
7.0100002 5.71 4.8600001
7.0100002 5.71 4.96
7.0100002 5.71 5.0599999
7.0100002 5.71 5.1599998
7.0100002 5.71 5.2600002
7.0100002 5.71 5.3600001
7.0100002 5.71 5.46
7.0100002 5.71 5.5599999
7.0100002 5.71 5.6599998
7.0100002 5.71 5.7600002
7.0100002 5.71 5.8600001
7.0100002 5.71 5.96
7.0100002 5.71 6.0599999
7.0100002 5.71 6.1599998
7.0100002 5.71 6.2600002
7.0100002 5.71 6.3600001
7.0100002 5.71 6.46
7.0100002 5.71 6.5599999
7.0100002 5.71 6.6599998
7.0100002 5.71 6.7600002
7.0100002 5.71 6.8600001
7.0100002 5.71 6.96
7.0100002 5.71 7.0599999
7.0100002 5.71 7.1599998
7.0100002 5.71 7.2600002
7.0100002 5.71 7.3600001
7.0100002 5.71 7.46
7.0100002 5.71 7.5599999
7.0100002 5.71 7.6599998
7.0100002 5.71 7.7600002
7.0100002 5.71 7.8600001
7.0100002 5.8099999 -0.94
7.0100002 5.8099999 -0.83999997
7.0100002 5.8099999 -0.74000001
7.0100002 5.8099999 -0.63999999
7.0100002 5.8099999 -0.54000002
7.0100002 5.8099999 -0.44
7.0100002 5.8099999 -0.34
7.0100002 5.8099999 -0.23999999
7.0100002 5.8099999 -0.14
7.0100002 5.8099999 -0.039999999
7.0100002 5.8099999 0.059999999
7.0100002 5.8099999 0.16
7.0100002 5.8099999 0.25999999
7.0100002 5.8099999 0.36000001
7.0100002 5.8099999 0.46000001
7.0100002 5.8099999 0.56
7.0100002 5.8099999 0.66000003
7.0100002 5.8099999 0.75999999
7.0100002 5.8099999 0.86000001
7.0100002 5.8099999 0.95999998
7.0100002 5.8099999 1.0599999
7.0100002 5.8099999 1.16
7.0100002 5.8099999 1.26
7.0100002 5.8099999 1.36
7.0100002 5.8099999 1.46
7.0100002 5.8099999 1.5599999
7.0100002 5.8099999 1.66
7.0100002 5.8099999 1.76
7.0100002 5.8099999 1.86
7.0100002 5.8099999 1.96
7.0100002 5.8099999 2.0599999
7.0100002 5.8099999 2.1600001
7.0100002 5.8099999 2.26
7.0100002 5.8099999 2.3599999
7.0100002 5.8099999 2.46
7.0100002 5.8099999 2.5599999
7.0100002 5.8099999 2.6600001
7.0100002 5.8099999 2.76
7.0100002 5.8099999 2.8599999
7.0100002 5.8099999 2.96
7.0100002 5.8099999 3.0599999
7.0100002 5.8099999 3.1600001
7.0100002 5.8099999 3.26
7.0100002 5.8099999 3.3599999
7.0100002 5.8099999 3.46
7.0100002 5.8099999 3.5599999
7.0100002 5.8099999 3.6600001
7.0100002 5.8099999 3.76
7.0100002 5.8099999 3.8599999
7.0100002 5.8099999 3.96
7.0100002 5.8099999 4.0599999
7.0100002 5.8099999 4.1599998
7.0100002 5.8099999 4.2600002
7.0100002 5.8099999 4.3600001
7.0100002 5.8099999 4.46
7.0100002 5.8099999 4.5599999
7.0100002 5.8099999 4.6599998
7.0100002 5.8099999 4.7600002
7.0100002 5.8099999 4.8600001
7.0100002 5.8099999 4.96
7.0100002 5.8099999 5.0599999
7.0100002 5.8099999 5.1599998
7.0100002 5.8099999 5.2600002
7.0100002 5.8099999 5.3600001
7.0100002 5.8099999 5.46
7.0100002 5.8099999 5.5599999
7.0100002 5.8099999 5.6599998
7.0100002 5.9099998 -0.94
7.0100002 5.9099998 -0.83999997
7.0100002 5.9099998 -0.74000001
7.0100002 5.9099998 -0.63999999
7.0100002 5.9099998 -0.54000002
7.0100002 5.9099998 -0.44
7.0100002 5.9099998 -0.34
7.0100002 5.9099998 -0.23999999
7.0100002 5.9099998 -0.14
7.0100002 5.9099998 -0.039999999
7.0100002 5.9099998 0.059999999
7.0100002 5.9099998 0.16
7.0100002 5.9099998 0.25999999
7.0100002 5.9099998 0.36000001
7.0100002 5.9099998 0.46000001
7.0100002 5.9099998 0.56
7.0100002 5.9099998 0.66000003
7.0100002 5.9099998 0.75999999
7.0100002 5.9099998 0.86000001
7.0100002 5.9099998 0.95999998
7.0100002 5.9099998 1.0599999
7.0100002 5.9099998 1.16
7.0100002 5.9099998 1.26
7.0100002 5.9099998 1.36
7.0100002 5.9099998 1.46
7.0100002 5.9099998 1.5599999
7.0100002 5.9099998 1.66
7.0100002 5.9099998 1.76
7.0100002 5.9099998 1.86
7.0100002 5.9099998 1.96
7.0100002 5.9099998 2.0599999
7.0100002 5.9099998 2.1600001
7.0100002 5.9099998 2.26
7.0100002 5.9099998 2.3599999
7.0100002 5.9099998 2.46
7.0100002 5.9099998 2.5599999
7.0100002 5.9099998 2.6600001
7.0100002 5.9099998 2.76
7.0100002 5.9099998 2.8599999
7.0100002 5.9099998 2.96
7.0100002 5.9099998 3.0599999
7.0100002 5.9099998 3.1600001
7.0100002 5.9099998 3.26
7.0100002 5.9099998 3.3599999
7.0100002 5.9099998 3.46
7.0100002 5.9099998 3.5599999
7.0100002 5.9099998 3.6600001
7.0100002 5.9099998 3.76
7.0100002 5.9099998 3.8599999
7.0100002 5.9099998 3.96
7.0100002 5.9099998 4.0599999
7.0100002 5.9099998 4.1599998
7.0100002 5.9099998 4.2600002
7.0100002 5.9099998 4.3600001
7.0100002 5.9099998 4.46
7.0100002 5.9099998 4.5599999
7.0100002 5.9099998 4.6599998
7.0100002 5.9099998 4.7600002
7.0100002 5.9099998 4.8600001
7.0100002 5.9099998 4.96
7.0100002 5.9099998 5.0599999
7.0100002 5.9099998 5.1599998
7.0100002 5.9099998 5.2600002
7.0100002 6.0100002 -0.94
7.0100002 6.0100002 -0.83999997
7.0100002 6.0100002 -0.74000001
7.0100002 6.0100002 -0.63999999
7.0100002 6.0100002 -0.54000002
7.0100002 6.0100002 -0.44
7.0100002 6.0100002 -0.34
7.0100002 6.0100002 -0.23999999
7.0100002 6.0100002 -0.14
7.0100002 6.0100002 -0.039999999
7.0100002 6.0100002 0.059999999
7.0100002 6.0100002 0.16
7.0100002 6.0100002 0.25999999
7.0100002 6.0100002 0.36000001
7.0100002 6.0100002 0.46000001
7.0100002 6.0100002 0.56
7.0100002 6.0100002 0.66000003
7.0100002 6.0100002 0.75999999
7.0100002 6.0100002 0.86000001
7.0100002 6.0100002 0.95999998
7.0100002 6.0100002 1.0599999
7.0100002 6.0100002 1.16
7.0100002 6.0100002 1.26
7.0100002 6.0100002 1.36
7.0100002 6.0100002 1.46
7.0100002 6.0100002 1.5599999
7.0100002 6.0100002 1.66
7.0100002 6.0100002 1.76
7.0100002 6.0100002 1.86
7.0100002 6.0100002 1.96
7.0100002 6.0100002 2.0599999
7.0100002 6.0100002 2.1600001
7.0100002 6.0100002 2.26
7.0100002 6.0100002 2.3599999
7.0100002 6.0100002 2.46
7.0100002 6.0100002 2.5599999
7.0100002 6.0100002 2.6600001
7.0100002 6.0100002 2.76
7.0100002 6.0100002 2.8599999
7.0100002 6.0100002 2.96
7.0100002 6.0100002 3.0599999
7.0100002 6.0100002 3.1600001
7.0100002 6.0100002 3.26
7.0100002 6.0100002 3.3599999
7.0100002 6.0100002 3.46
7.0100002 6.0100002 3.5599999
7.0100002 6.0100002 3.6600001
7.0100002 6.0100002 3.76
7.0100002 6.0100002 3.8599999
7.0100002 6.0100002 3.96
7.0100002 6.0100002 4.0599999
7.0100002 6.0100002 4.1599998
7.0100002 6.0100002 4.2600002
7.0100002 6.0100002 4.3600001
7.0100002 6.0100002 4.46
7.0100002 6.0100002 4.5599999
7.0100002 6.0100002 4.6599998
7.0100002 6.0100002 4.7600002
7.0100002 6.0100002 4.8600001
7.0100002 6.0100002 4.96
7.0100002 6.0100002 5.0599999
7.0100002 6.0100002 5.1599998
7.0100002 6.0100002 5.2600002
7.0100002 6.0100002 5.3600001
7.0100002 6.0100002 5.46
7.0100002 6.0100002 5.5599999
7.0100002 6.0100002 5.6599998
7.0100002 6.0100002 5.7600002
7.0100002 6.0100002 5.8600001
7.0100002 6.0100002 5.96
7.0100002 6.0100002 6.0599999
7.0100002 6.0100002 6.1599998
7.0100002 6.0100002 6.2600002
7.0100002 6.0100002 6.3600001
7.0100002 6.0100002 6.46
7.0100002 6.0100002 6.5599999
7.0100002 6.1100001 -0.94
7.0100002 6.1100001 -0.83999997
7.0100002 6.1100001 -0.74000001
7.0100002 6.1100001 -0.63999999
7.0100002 6.1100001 -0.54000002
7.0100002 6.1100001 -0.44
7.0100002 6.1100001 -0.34
7.0100002 6.1100001 -0.23999999
7.0100002 6.1100001 -0.14
7.0100002 6.1100001 -0.039999999
7.0100002 6.1100001 0.059999999
7.0100002 6.1100001 0.16
7.0100002 6.1100001 0.25999999
7.0100002 6.1100001 0.36000001
7.0100002 6.1100001 0.46000001
7.0100002 6.1100001 0.56
7.0100002 6.1100001 0.66000003
7.0100002 6.1100001 0.75999999
7.0100002 6.1100001 0.86000001
7.0100002 6.1100001 0.95999998
7.0100002 6.1100001 1.0599999
7.0100002 6.1100001 1.16
7.0100002 6.1100001 1.26
7.0100002 6.1100001 1.36
7.0100002 6.1100001 1.46
7.0100002 6.1100001 1.5599999
7.0100002 6.1100001 1.66
7.0100002 6.1100001 1.76
7.0100002 6.1100001 1.86
7.0100002 6.1100001 1.96
7.0100002 6.1100001 2.0599999
7.0100002 6.1100001 2.1600001
7.0100002 6.1100001 2.26
7.0100002 6.1100001 2.3599999
7.0100002 6.1100001 2.46
7.0100002 6.1100001 2.5599999
7.0100002 6.1100001 2.6600001
7.0100002 6.1100001 2.76
7.0100002 6.1100001 2.8599999
7.0100002 6.1100001 2.96
7.0100002 6.1100001 3.0599999
7.0100002 6.1100001 3.1600001
7.0100002 6.1100001 3.26
7.0100002 6.1100001 3.3599999
7.0100002 6.1100001 3.46
7.0100002 6.1100001 3.5599999
7.0100002 6.1100001 3.6600001
7.0100002 6.1100001 3.76
7.0100002 6.1100001 3.8599999
7.0100002 6.1100001 3.96
7.0100002 6.1100001 4.0599999
7.0100002 6.1100001 4.1599998
7.0100002 6.1100001 4.2600002
7.0100002 6.1100001 4.3600001
7.0100002 6.1100001 4.46
7.0100002 6.1100001 4.5599999
7.0100002 6.1100001 4.6599998
7.0100002 6.1100001 4.7600002
7.0100002 6.1100001 4.8600001
7.0100002 6.1100001 4.96
7.0100002 6.1100001 5.0599999
7.0100002 6.1100001 5.1599998
7.0100002 6.1100001 5.2600002
7.0100002 6.1100001 5.3600001
7.0100002 6.1100001 5.46
7.0100002 6.1100001 5.5599999
7.0100002 6.1100001 5.6599998
7.0100002 6.1100001 5.7600002
7.0100002 6.1100001 5.8600001
7.0100002 6.1100001 5.96
7.0100002 6.1100001 6.0599999
7.0100002 6.1100001 6.1599998
7.0100002 6.1100001 6.2600002
7.0100002 6.1100001 6.3600001
7.0100002 6.1100001 6.46
7.0100002 6.1100001 6.5599999
7.0100002 6.1100001 6.6599998
7.0100002 6.21 -0.94
7.0100002 6.21 -0.83999997
7.0100002 6.21 -0.74000001
7.0100002 6.21 -0.63999999
7.0100002 6.21 -0.54000002
7.0100002 6.21 -0.44
7.0100002 6.21 -0.34
7.0100002 6.21 -0.23999999
7.0100002 6.21 -0.14
7.0100002 6.21 -0.039999999
7.0100002 6.21 0.059999999
7.0100002 6.21 0.16
7.0100002 6.21 0.25999999
7.0100002 6.21 0.36000001
7.0100002 6.21 0.46000001
7.0100002 6.21 0.56
7.0100002 6.21 0.66000003
7.0100002 6.21 0.75999999
7.0100002 6.21 0.86000001
7.0100002 6.21 0.95999998
7.0100002 6.21 1.0599999
7.0100002 6.21 1.16
7.0100002 6.21 1.26
7.0100002 6.21 1.36
7.0100002 6.21 1.46
7.0100002 6.21 1.5599999
7.0100002 6.21 1.66
7.0100002 6.21 1.76
7.0100002 6.21 1.86
7.0100002 6.21 1.96
7.0100002 6.21 2.0599999
7.0100002 6.21 2.1600001
7.0100002 6.21 2.26
7.0100002 6.21 2.3599999
7.0100002 6.21 2.46
7.0100002 6.21 2.5599999
7.0100002 6.21 2.6600001
7.0100002 6.21 2.76
7.0100002 6.21 2.8599999
7.0100002 6.21 2.96
7.0100002 6.21 3.0599999
7.0100002 6.21 3.1600001
7.0100002 6.21 3.26
7.0100002 6.21 3.3599999
7.0100002 6.21 3.46
7.0100002 6.21 3.5599999
7.0100002 6.21 3.6600001
7.0100002 6.21 3.76
7.0100002 6.21 3.8599999
7.0100002 6.21 3.96
7.0100002 6.21 4.0599999
7.0100002 6.21 4.1599998
7.0100002 6.21 4.2600002
7.0100002 6.21 4.3600001
7.0100002 6.21 4.46
7.0100002 6.21 4.5599999
7.0100002 6.21 4.6599998
7.0100002 6.21 4.7600002
7.0100002 6.21 4.8600001
7.0100002 6.21 4.96
7.0100002 6.21 5.0599999
7.0100002 6.21 5.1599998
7.0100002 6.21 5.2600002
7.0100002 6.21 5.3600001
7.0100002 6.21 5.46
7.1100001 5.8099999 -0.94
7.1100001 5.8099999 -0.83999997
7.1100001 5.8099999 -0.74000001
7.1100001 5.8099999 -0.63999999
7.1100001 5.8099999 -0.54000002
7.1100001 5.8099999 -0.44
7.1100001 5.8099999 -0.34
7.1100001 5.8099999 -0.23999999
7.1100001 5.8099999 -0.14
7.1100001 5.8099999 -0.039999999
7.1100001 5.8099999 0.059999999
7.1100001 5.8099999 0.16
7.1100001 5.8099999 0.25999999
7.1100001 5.8099999 0.36000001
7.1100001 5.8099999 0.46000001
7.1100001 5.8099999 0.56
7.1100001 5.8099999 0.66000003
7.1100001 5.8099999 0.75999999
7.1100001 5.8099999 0.86000001
7.1100001 5.8099999 0.95999998
7.1100001 5.8099999 1.0599999
7.1100001 5.8099999 1.16
7.1100001 5.8099999 1.26
7.1100001 5.8099999 1.36
7.1100001 5.8099999 1.46
7.1100001 5.8099999 1.5599999
7.1100001 5.8099999 1.66
7.1100001 5.8099999 1.76
7.1100001 5.8099999 1.86
7.1100001 5.8099999 1.96
7.1100001 5.8099999 2.0599999
7.1100001 5.8099999 2.1600001
7.1100001 5.8099999 2.26
7.1100001 5.8099999 2.3599999
7.1100001 5.8099999 2.46
7.1100001 5.8099999 2.5599999
7.1100001 5.8099999 2.6600001
7.1100001 5.8099999 2.76
7.1100001 5.8099999 2.8599999
7.1100001 5.8099999 2.96
7.1100001 5.8099999 3.0599999
7.1100001 5.8099999 3.1600001
7.1100001 5.8099999 3.26
7.1100001 5.8099999 3.3599999
7.1100001 5.8099999 3.46
7.1100001 5.8099999 3.5599999
7.1100001 5.8099999 3.6600001
7.1100001 5.8099999 3.76
7.1100001 5.8099999 3.8599999
7.1100001 5.8099999 3.96
7.1100001 5.8099999 4.0599999
7.1100001 5.8099999 4.1599998
7.1100001 5.8099999 4.2600002
7.1100001 5.8099999 4.3600001
7.1100001 5.8099999 4.46
7.1100001 5.8099999 4.5599999
7.1100001 5.8099999 4.6599998
7.1100001 5.8099999 4.7600002
7.1100001 5.8099999 4.8600001
7.1100001 5.8099999 4.96
7.1100001 5.8099999 5.0599999
7.1100001 5.8099999 5.1599998
7.1100001 5.8099999 5.2600002
7.1100001 5.8099999 5.3600001
7.1100001 5.8099999 5.46
7.1100001 5.8099999 5.5599999
7.1100001 5.8099999 5.6599998
7.1100001 5.8099999 5.7600002
7.1100001 5.8099999 5.8600001
7.1100001 5.8099999 5.96
7.1100001 5.8099999 6.0599999
7.1100001 5.8099999 6.1599998
7.1100001 5.8099999 6.2600002
7.1100001 5.8099999 6.3600001
7.1100001 5.8099999 6.46
7.1100001 5.8099999 6.5599999
7.1100001 5.8099999 6.6599998
7.1100001 5.8099999 6.7600002
7.1100001 5.8099999 6.8600001
7.1100001 5.8099999 6.96
7.1100001 5.8099999 7.0599999
7.1100001 5.8099999 7.1599998
7.1100001 5.8099999 7.2600002
7.1100001 5.8099999 7.3600001
7.1100001 5.8099999 7.46
7.1100001 5.8099999 7.5599999
7.1100001 5.9099998 -0.94
7.1100001 5.9099998 -0.83999997
7.1100001 5.9099998 -0.74000001
7.1100001 5.9099998 -0.63999999
7.1100001 5.9099998 -0.54000002
7.1100001 5.9099998 -0.44
7.1100001 5.9099998 -0.34
7.1100001 5.9099998 -0.23999999
7.1100001 5.9099998 -0.14
7.1100001 5.9099998 -0.039999999
7.1100001 5.9099998 0.059999999
7.1100001 5.9099998 0.16
7.1100001 5.9099998 0.25999999
7.1100001 5.9099998 0.36000001
7.1100001 5.9099998 0.46000001
7.1100001 5.9099998 0.56
7.1100001 5.9099998 0.66000003
7.1100001 5.9099998 0.75999999
7.1100001 5.9099998 0.86000001
7.1100001 5.9099998 0.95999998
7.1100001 5.9099998 1.0599999
7.1100001 5.9099998 1.16
7.1100001 5.9099998 1.26
7.1100001 5.9099998 1.36
7.1100001 5.9099998 1.46
7.1100001 5.9099998 1.5599999
7.1100001 5.9099998 1.66
7.1100001 5.9099998 1.76
7.1100001 5.9099998 1.86
7.1100001 5.9099998 1.96
7.1100001 5.9099998 2.0599999
7.1100001 5.9099998 2.1600001
7.1100001 5.9099998 2.26
7.1100001 5.9099998 2.3599999
7.1100001 5.9099998 2.46
7.1100001 5.9099998 2.5599999
7.1100001 5.9099998 2.6600001
7.1100001 5.9099998 2.76
7.1100001 5.9099998 2.8599999
7.1100001 5.9099998 2.96
7.1100001 5.9099998 3.0599999
7.1100001 5.9099998 3.1600001
7.1100001 5.9099998 3.26
7.1100001 5.9099998 3.3599999
7.1100001 5.9099998 3.46
7.1100001 5.9099998 3.5599999
7.1100001 5.9099998 3.6600001
7.1100001 5.9099998 3.76
7.1100001 5.9099998 3.8599999
7.1100001 5.9099998 3.96
7.1100001 5.9099998 4.0599999
7.1100001 5.9099998 4.1599998
7.1100001 5.9099998 4.2600002
7.1100001 5.9099998 4.3600001
7.1100001 5.9099998 4.46
7.1100001 5.9099998 4.5599999
7.1100001 5.9099998 4.6599998
7.1100001 5.9099998 4.7600002
7.1100001 5.9099998 4.8600001
7.1100001 5.9099998 4.96
7.1100001 5.9099998 5.0599999
7.1100001 5.9099998 5.1599998
7.1100001 5.9099998 5.2600002
7.1100001 5.9099998 5.3600001
7.1100001 5.9099998 5.46
7.1100001 5.9099998 5.5599999
7.1100001 5.9099998 5.6599998
7.1100001 5.9099998 5.7600002
7.1100001 5.9099998 5.8600001
7.1100001 5.9099998 5.96
7.1100001 5.9099998 6.0599999
7.1100001 5.9099998 6.1599998
7.1100001 5.9099998 6.2600002
7.1100001 5.9099998 6.3600001
7.1100001 5.9099998 6.46
7.1100001 5.9099998 6.5599999
7.1100001 5.9099998 6.6599998
7.1100001 5.9099998 6.7600002
7.1100001 5.9099998 6.8600001
7.1100001 5.9099998 6.96
7.1100001 5.9099998 7.0599999
7.1100001 6.0100002 -0.94
7.1100001 6.0100002 -0.83999997
7.1100001 6.0100002 -0.74000001
7.1100001 6.0100002 -0.63999999
7.1100001 6.0100002 -0.54000002
7.1100001 6.0100002 -0.44
7.1100001 6.0100002 -0.34
7.1100001 6.0100002 -0.23999999
7.1100001 6.0100002 -0.14
7.1100001 6.0100002 -0.039999999
7.1100001 6.0100002 0.059999999
7.1100001 6.0100002 0.16
7.1100001 6.0100002 0.25999999
7.1100001 6.0100002 0.36000001
7.1100001 6.0100002 0.46000001
7.1100001 6.0100002 0.56
7.1100001 6.0100002 0.66000003
7.1100001 6.0100002 0.75999999
7.1100001 6.0100002 0.86000001
7.1100001 6.0100002 0.95999998
7.1100001 6.0100002 1.0599999
7.1100001 6.0100002 1.16
7.1100001 6.0100002 1.26
7.1100001 6.0100002 1.36
7.1100001 6.0100002 1.46
7.1100001 6.0100002 1.5599999
7.1100001 6.0100002 1.66
7.1100001 6.0100002 1.76
7.1100001 6.0100002 1.86
7.1100001 6.0100002 1.96
7.1100001 6.0100002 2.0599999
7.1100001 6.0100002 2.1600001
7.1100001 6.0100002 2.26
7.1100001 6.0100002 2.3599999
7.1100001 6.0100002 2.46
7.1100001 6.0100002 2.5599999
7.1100001 6.0100002 2.6600001
7.1100001 6.0100002 2.76
7.1100001 6.0100002 2.8599999
7.1100001 6.0100002 2.96
7.1100001 6.0100002 3.0599999
7.1100001 6.0100002 3.1600001
7.1100001 6.0100002 3.26
7.1100001 6.0100002 3.3599999
7.1100001 6.0100002 3.46
7.1100001 6.0100002 3.5599999
7.1100001 6.0100002 3.6600001
7.1100001 6.0100002 3.76
7.1100001 6.0100002 3.8599999
7.1100001 6.0100002 3.96
7.1100001 6.0100002 4.0599999
7.1100001 6.0100002 4.1599998
7.1100001 6.0100002 4.2600002
7.1100001 6.0100002 4.3600001
7.1100001 6.0100002 4.46
7.1100001 6.0100002 4.5599999
7.1100001 6.0100002 4.6599998
7.1100001 6.0100002 4.7600002
7.1100001 6.0100002 4.8600001
7.1100001 6.0100002 4.96
7.1100001 6.0100002 5.0599999
7.1100001 6.0100002 5.1599998
7.1100001 6.0100002 5.2600002
7.1100001 6.0100002 5.3600001
7.1100001 6.0100002 5.46
7.1100001 6.0100002 5.5599999
7.1100001 6.0100002 5.6599998
7.1100001 6.0100002 5.7600002
7.1100001 6.0100002 5.8600001
7.1100001 6.0100002 5.96
7.1100001 6.0100002 6.0599999
7.1100001 6.0100002 6.1599998
7.1100001 6.0100002 6.2600002
7.1100001 6.0100002 6.3600001
7.1100001 6.0100002 6.46
7.1100001 6.0100002 6.5599999
7.1100001 6.0100002 6.6599998
7.1100001 6.0100002 6.7600002
7.1100001 6.0100002 6.8600001
7.1100001 6.1100001 -0.94
7.1100001 6.1100001 -0.83999997
7.1100001 6.1100001 -0.74000001
7.1100001 6.1100001 -0.63999999
7.1100001 6.1100001 -0.54000002
7.1100001 6.1100001 -0.44
7.1100001 6.1100001 -0.34
7.1100001 6.1100001 -0.23999999
7.1100001 6.1100001 -0.14
7.1100001 6.1100001 -0.039999999
7.1100001 6.1100001 0.059999999
7.1100001 6.1100001 0.16
7.1100001 6.1100001 0.25999999
7.1100001 6.1100001 0.36000001
7.1100001 6.1100001 0.46000001
7.1100001 6.1100001 0.56
7.1100001 6.1100001 0.66000003
7.1100001 6.1100001 0.75999999
7.1100001 6.1100001 0.86000001
7.1100001 6.1100001 0.95999998
7.1100001 6.1100001 1.0599999
7.1100001 6.1100001 1.16
7.1100001 6.1100001 1.26
7.1100001 6.1100001 1.36
7.1100001 6.1100001 1.46
7.1100001 6.1100001 1.5599999
7.1100001 6.1100001 1.66
7.1100001 6.1100001 1.76
7.1100001 6.1100001 1.86
7.1100001 6.1100001 1.96
7.1100001 6.1100001 2.0599999
7.1100001 6.1100001 2.1600001
7.1100001 6.1100001 2.26
7.1100001 6.1100001 2.3599999
7.1100001 6.1100001 2.46
7.1100001 6.1100001 2.5599999
7.1100001 6.1100001 2.6600001
7.1100001 6.1100001 2.76
7.1100001 6.1100001 2.8599999
7.1100001 6.1100001 2.96
7.1100001 6.1100001 3.0599999
7.1100001 6.1100001 3.1600001
7.1100001 6.1100001 3.26
7.1100001 6.1100001 3.3599999
7.1100001 6.1100001 3.46
7.1100001 6.1100001 3.5599999
7.1100001 6.1100001 3.6600001
7.1100001 6.1100001 3.76
7.1100001 6.1100001 3.8599999
7.1100001 6.1100001 3.96
7.1100001 6.1100001 4.0599999
7.1100001 6.1100001 4.1599998
7.1100001 6.1100001 4.2600002
7.1100001 6.1100001 4.3600001
7.1100001 6.1100001 4.46
7.1100001 6.1100001 4.5599999
7.1100001 6.1100001 4.6599998
7.1100001 6.1100001 4.7600002
7.1100001 6.1100001 4.8600001
7.1100001 6.1100001 4.96
7.1100001 6.1100001 5.0599999
7.1100001 6.1100001 5.1599998
7.1100001 6.1100001 5.2600002
7.1100001 6.1100001 5.3600001
7.1100001 6.1100001 5.46
7.1100001 6.1100001 5.5599999
7.1100001 6.1100001 5.6599998
7.1100001 6.1100001 5.7600002
7.1100001 6.1100001 5.8600001
7.1100001 6.1100001 5.96
7.1100001 6.1100001 6.0599999
7.1100001 6.1100001 6.1599998
7.1100001 6.1100001 6.2600002
7.1100001 6.1100001 6.3600001
7.1100001 6.1100001 6.46
-1.99 7.0100002 -0.94
-1.99 7.0100002 -0.83999997
-1.99 7.0100002 -0.74000001
-1.99 7.0100002 -0.63999999
-1.99 7.0100002 -0.54000002
-1.99 7.0100002 -0.44
-1.99 7.0100002 -0.34
-1.99 7.0100002 -0.23999999
-1.99 7.0100002 -0.14
-1.99 7.0100002 -0.039999999
-1.99 7.0100002 0.059999999
-1.99 7.0100002 0.16
-1.99 7.0100002 0.25999999
-1.99 7.0100002 0.36000001
-1.99 7.0100002 0.46000001
-1.99 7.0100002 0.56
-1.99 7.0100002 0.66000003
-1.99 7.0100002 0.75999999
-1.99 7.0100002 0.86000001
-1.99 7.0100002 0.95999998
-1.99 7.0100002 1.0599999
-1.99 7.0100002 1.16
-1.99 7.0100002 1.26
-1.99 7.0100002 1.36
-1.99 7.0100002 1.46
-1.99 7.0100002 1.5599999
-1.99 7.0100002 1.66
-1.99 7.0100002 1.76
-1.99 7.0100002 1.86
-1.99 7.0100002 1.96
-1.99 7.0100002 2.0599999
-1.99 7.0100002 2.1600001
-1.99 7.0100002 2.26
-1.99 7.0100002 2.3599999
-1.99 7.0100002 2.46
-1.99 7.0100002 2.5599999
-1.99 7.0100002 2.6600001
-1.99 7.0100002 2.76
-1.99 7.0100002 2.8599999
-1.99 7.0100002 2.96
-1.99 7.0100002 3.0599999
-1.99 7.0100002 3.1600001
-1.99 7.0100002 3.26
-1.99 7.0100002 3.3599999
-1.99 7.0100002 3.46
-1.99 7.0100002 3.5599999
-1.99 7.0100002 3.6600001
-1.99 7.0100002 3.76
-1.99 7.0100002 3.8599999
-1.99 7.0100002 3.96
-1.99 7.0100002 4.0599999
-1.99 7.0100002 4.1599998
-1.99 7.0100002 4.2600002
-1.99 7.0100002 4.3600001
-1.99 7.0100002 4.46
-1.99 7.0100002 4.5599999
-1.99 7.0100002 4.6599998
-1.99 7.0100002 4.7600002
-1.99 7.0100002 4.8600001
-1.99 7.0100002 4.96
-1.99 7.0100002 5.0599999
-1.99 7.0100002 5.1599998
-1.99 7.0100002 5.2600002
-1.99 7.0100002 5.3600001
-1.99 7.0100002 5.46
-1.99 7.0100002 5.5599999
-1.99 7.0100002 5.6599998
-1.99 7.0100002 5.7600002
-1.99 7.0100002 5.8600001
-1.99 7.0100002 5.96
-1.99 7.0100002 6.0599999
-1.99 7.0100002 6.1599998
-1.99 7.0100002 6.2600002
-1.99 7.1100001 -0.94
-1.99 7.1100001 -0.83999997
-1.99 7.1100001 -0.74000001
-1.99 7.1100001 -0.63999999
-1.99 7.1100001 -0.54000002
-1.99 7.1100001 -0.44
-1.99 7.1100001 -0.34
-1.99 7.1100001 -0.23999999
-1.99 7.1100001 -0.14
-1.99 7.1100001 -0.039999999
-1.99 7.1100001 0.059999999
-1.99 7.1100001 0.16
-1.99 7.1100001 0.25999999
-1.99 7.1100001 0.36000001
-1.99 7.1100001 0.46000001
-1.99 7.1100001 0.56
-1.99 7.1100001 0.66000003
-1.99 7.1100001 0.75999999
-1.99 7.1100001 0.86000001
-1.99 7.1100001 0.95999998
-1.99 7.1100001 1.0599999
-1.99 7.1100001 1.16
-1.99 7.1100001 1.26
-1.99 7.1100001 1.36
-1.99 7.1100001 1.46
-1.99 7.1100001 1.5599999
-1.99 7.1100001 1.66
-1.99 7.1100001 1.76
-1.99 7.1100001 1.86
-1.99 7.1100001 1.96
-1.99 7.1100001 2.0599999
-1.99 7.1100001 2.1600001
-1.99 7.1100001 2.26
-1.99 7.1100001 2.3599999
-1.99 7.1100001 2.46
-1.99 7.1100001 2.5599999
-1.99 7.1100001 2.6600001
-1.99 7.1100001 2.76
-1.99 7.1100001 2.8599999
-1.99 7.1100001 2.96
-1.99 7.1100001 3.0599999
-1.99 7.1100001 3.1600001
-1.99 7.1100001 3.26
-1.99 7.1100001 3.3599999
-1.99 7.1100001 3.46
-1.99 7.1100001 3.5599999
-1.99 7.1100001 3.6600001
-1.99 7.1100001 3.76
-1.99 7.1100001 3.8599999
-1.99 7.1100001 3.96
-1.99 7.1100001 4.0599999
-1.99 7.1100001 4.1599998
-1.99 7.1100001 4.2600002
-1.99 7.1100001 4.3600001
-1.99 7.1100001 4.46
-1.99 7.1100001 4.5599999
-1.99 7.1100001 4.6599998
-1.99 7.1100001 4.7600002
-1.99 7.1100001 4.8600001
-1.99 7.1100001 4.96
-1.99 7.1100001 5.0599999
-1.99 7.1100001 5.1599998
-1.99 7.1100001 5.2600002
-1.99 7.1100001 5.3600001
-1.99 7.1100001 5.46
-1.99 7.1100001 5.5599999
-1.99 7.1100001 5.6599998
-1.99 7.1100001 5.7600002
-1.99 7.1100001 5.8600001
-1.99 7.1100001 5.96
-1.99 7.1100001 6.0599999
-1.99 7.1100001 6.1599998
-1.99 7.1100001 6.2600002
-1.99 7.1100001 6.3600001
-1.99 7.1100001 6.46
-1.99 7.1100001 6.5599999
-1.99 7.1100001 6.6599998
-1.99 7.1100001 6.7600002
-1.99 7.1100001 6.8600001
-1.99 7.1100001 6.96
-1.99 7.1100001 7.0599999
-1.99 7.1100001 7.1599998
-1.99 7.1100001 7.2600002
-1.99 7.1100001 7.3600001
-1.99 7.1100001 7.46
-1.99 7.1100001 7.5599999
-1.99 7.21 -0.94
-1.99 7.21 -0.83999997
-1.99 7.21 -0.74000001
-1.99 7.21 -0.63999999
-1.99 7.21 -0.54000002
-1.99 7.21 -0.44
-1.99 7.21 -0.34
-1.99 7.21 -0.23999999
-1.99 7.21 -0.14
-1.99 7.21 -0.039999999
-1.99 7.21 0.059999999
-1.99 7.21 0.16
-1.99 7.21 0.25999999
-1.99 7.21 0.36000001
-1.99 7.21 0.46000001
-1.99 7.21 0.56
-1.99 7.21 0.66000003
-1.99 7.21 0.75999999
-1.99 7.21 0.86000001
-1.99 7.21 0.95999998
-1.99 7.21 1.0599999
-1.99 7.21 1.16
-1.99 7.21 1.26
-1.99 7.21 1.36
-1.99 7.21 1.46
-1.99 7.21 1.5599999
-1.99 7.21 1.66
-1.99 7.21 1.76
-1.99 7.21 1.86
-1.99 7.21 1.96
-1.99 7.21 2.0599999
-1.99 7.21 2.1600001
-1.99 7.21 2.26
-1.99 7.21 2.3599999
-1.99 7.21 2.46
-1.99 7.21 2.5599999
-1.99 7.21 2.6600001
-1.99 7.21 2.76
-1.99 7.21 2.8599999
-1.99 7.21 2.96
-1.99 7.21 3.0599999
-1.99 7.21 3.1600001
-1.99 7.21 3.26
-1.99 7.21 3.3599999
-1.99 7.21 3.46
-1.99 7.21 3.5599999
-1.99 7.21 3.6600001
-1.99 7.21 3.76
-1.99 7.21 3.8599999
-1.99 7.21 3.96
-1.99 7.21 4.0599999
-1.99 7.21 4.1599998
-1.99 7.21 4.2600002
-1.99 7.21 4.3600001
-1.99 7.21 4.46
-1.99 7.21 4.5599999
-1.99 7.21 4.6599998
-1.99 7.21 4.7600002
-1.99 7.21 4.8600001
-1.99 7.21 4.96
-1.99 7.21 5.0599999
-1.99 7.21 5.1599998
-1.99 7.21 5.2600002
-1.99 7.21 5.3600001
-1.99 7.21 5.46
-1.99 7.21 5.5599999
-1.99 7.21 5.6599998
-1.89 6.9099998 -0.94
-1.89 6.9099998 -0.83999997
-1.89 6.9099998 -0.74000001
-1.89 6.9099998 -0.63999999
-1.89 6.9099998 -0.54000002
-1.89 6.9099998 -0.44
-1.89 6.9099998 -0.34
-1.89 6.9099998 -0.23999999
-1.89 6.9099998 -0.14
-1.89 6.9099998 -0.039999999
-1.89 6.9099998 0.059999999
-1.89 6.9099998 0.16
-1.89 6.9099998 0.25999999
-1.89 6.9099998 0.36000001
-1.89 6.9099998 0.46000001
-1.89 6.9099998 0.56
-1.89 6.9099998 0.66000003
-1.89 6.9099998 0.75999999
-1.89 6.9099998 0.86000001
-1.89 6.9099998 0.95999998
-1.89 6.9099998 1.0599999
-1.89 6.9099998 1.16
-1.89 6.9099998 1.26
-1.89 6.9099998 1.36
-1.89 6.9099998 1.46
-1.89 6.9099998 1.5599999
-1.89 6.9099998 1.66
-1.89 6.9099998 1.76
-1.89 6.9099998 1.86
-1.89 6.9099998 1.96
-1.89 6.9099998 2.0599999
-1.89 6.9099998 2.1600001
-1.89 6.9099998 2.26
-1.89 6.9099998 2.3599999
-1.89 6.9099998 2.46
-1.89 6.9099998 2.5599999
-1.89 6.9099998 2.6600001
-1.89 6.9099998 2.76
-1.89 6.9099998 2.8599999
-1.89 6.9099998 2.96
-1.89 6.9099998 3.0599999
-1.89 6.9099998 3.1600001
-1.89 6.9099998 3.26
-1.89 6.9099998 3.3599999
-1.89 6.9099998 3.46
-1.89 6.9099998 3.5599999
-1.89 6.9099998 3.6600001
-1.89 6.9099998 3.76
-1.89 6.9099998 3.8599999
-1.89 6.9099998 3.96
-1.89 6.9099998 4.0599999
-1.89 6.9099998 4.1599998
-1.89 6.9099998 4.2600002
-1.89 6.9099998 4.3600001
-1.89 6.9099998 4.46
-1.89 6.9099998 4.5599999
-1.89 6.9099998 4.6599998
-1.89 6.9099998 4.7600002
-1.89 6.9099998 4.8600001
-1.89 6.9099998 4.96
-1.89 6.9099998 5.0599999
-1.89 6.9099998 5.1599998
-1.89 6.9099998 5.2600002
-1.89 7.0100002 -0.94
-1.89 7.0100002 -0.83999997
-1.89 7.0100002 -0.74000001
-1.89 7.0100002 -0.63999999
-1.89 7.0100002 -0.54000002
-1.89 7.0100002 -0.44
-1.89 7.0100002 -0.34
-1.89 7.0100002 -0.23999999
-1.89 7.0100002 -0.14
-1.89 7.0100002 -0.039999999
-1.89 7.0100002 0.059999999
-1.89 7.0100002 0.16
-1.89 7.0100002 0.25999999
-1.89 7.0100002 0.36000001
-1.89 7.0100002 0.46000001
-1.89 7.0100002 0.56
-1.89 7.0100002 0.66000003
-1.89 7.0100002 0.75999999
-1.89 7.0100002 0.86000001
-1.89 7.0100002 0.95999998
-1.89 7.0100002 1.0599999
-1.89 7.0100002 1.16
-1.89 7.0100002 1.26
-1.89 7.0100002 1.36
-1.89 7.0100002 1.46
-1.89 7.0100002 1.5599999
-1.89 7.0100002 1.66
-1.89 7.0100002 1.76
-1.89 7.0100002 1.86
-1.89 7.0100002 1.96
-1.89 7.0100002 2.0599999
-1.89 7.0100002 2.1600001
-1.89 7.0100002 2.26
-1.89 7.0100002 2.3599999
-1.89 7.0100002 2.46
-1.89 7.0100002 2.5599999
-1.89 7.0100002 2.6600001
-1.89 7.0100002 2.76
-1.89 7.0100002 2.8599999
-1.89 7.0100002 2.96
-1.89 7.0100002 3.0599999
-1.89 7.0100002 3.1600001
-1.89 7.0100002 3.26
-1.89 7.0100002 3.3599999
-1.89 7.0100002 3.46
-1.89 7.0100002 3.5599999
-1.89 7.0100002 3.6600001
-1.89 7.0100002 3.76
-1.89 7.0100002 3.8599999
-1.89 7.0100002 3.96
-1.89 7.0100002 4.0599999
-1.89 7.0100002 4.1599998
-1.89 7.0100002 4.2600002
-1.89 7.0100002 4.3600001
-1.89 7.0100002 4.46
-1.89 7.0100002 4.5599999
-1.89 7.0100002 4.6599998
-1.89 7.0100002 4.7600002
-1.89 7.0100002 4.8600001
-1.89 7.0100002 4.96
-1.89 7.0100002 5.0599999
-1.89 7.0100002 5.1599998
-1.89 7.0100002 5.2600002
-1.89 7.0100002 5.3600001
-1.89 7.0100002 5.46
-1.89 7.0100002 5.5599999
-1.89 7.0100002 5.6599998
-1.89 7.0100002 5.7600002
-1.89 7.0100002 5.8600001
-1.89 7.0100002 5.96
-1.89 7.0100002 6.0599999
-1.89 7.0100002 6.1599998
-1.89 7.0100002 6.2600002
-1.89 7.0100002 6.3600001
-1.89 7.0100002 6.46
-1.89 7.0100002 6.5599999
-1.89 7.0100002 6.6599998
-1.89 7.0100002 6.7600002
-1.89 7.0100002 6.8600001
-1.89 7.0100002 6.96
-1.89 7.0100002 7.0599999
-1.89 7.0100002 7.1599998
-1.89 7.0100002 7.2600002
-1.89 7.0100002 7.3600001
-1.89 7.0100002 7.46
-1.89 7.0100002 7.5599999
-1.89 7.0100002 7.6599998
-1.89 7.1100001 -0.94
-1.89 7.1100001 -0.83999997
-1.89 7.1100001 -0.74000001
-1.89 7.1100001 -0.63999999
-1.89 7.1100001 -0.54000002
-1.89 7.1100001 -0.44
-1.89 7.1100001 -0.34
-1.89 7.1100001 -0.23999999
-1.89 7.1100001 -0.14
-1.89 7.1100001 -0.039999999
-1.89 7.1100001 0.059999999
-1.89 7.1100001 0.16
-1.89 7.1100001 0.25999999
-1.89 7.1100001 0.36000001
-1.89 7.1100001 0.46000001
-1.89 7.1100001 0.56
-1.89 7.1100001 0.66000003
-1.89 7.1100001 0.75999999
-1.89 7.1100001 0.86000001
-1.89 7.1100001 0.95999998
-1.89 7.1100001 1.0599999
-1.89 7.1100001 1.16
-1.89 7.1100001 1.26
-1.89 7.1100001 1.36
-1.89 7.1100001 1.46
-1.89 7.1100001 1.5599999
-1.89 7.1100001 1.66
-1.89 7.1100001 1.76
-1.89 7.1100001 1.86
-1.89 7.1100001 1.96
-1.89 7.1100001 2.0599999
-1.89 7.1100001 2.1600001
-1.89 7.1100001 2.26
-1.89 7.1100001 2.3599999
-1.89 7.1100001 2.46
-1.89 7.1100001 2.5599999
-1.89 7.1100001 2.6600001
-1.89 7.1100001 2.76
-1.89 7.1100001 2.8599999
-1.89 7.1100001 2.96
-1.89 7.1100001 3.0599999
-1.89 7.1100001 3.1600001
-1.89 7.1100001 3.26
-1.89 7.1100001 3.3599999
-1.89 7.1100001 3.46
-1.89 7.1100001 3.5599999
-1.89 7.1100001 3.6600001
-1.89 7.1100001 3.76
-1.89 7.1100001 3.8599999
-1.89 7.1100001 3.96
-1.89 7.1100001 4.0599999
-1.89 7.1100001 4.1599998
-1.89 7.1100001 4.2600002
-1.89 7.1100001 4.3600001
-1.89 7.1100001 4.46
-1.89 7.1100001 4.5599999
-1.89 7.1100001 4.6599998
-1.89 7.1100001 4.7600002
-1.89 7.1100001 4.8600001
-1.89 7.1100001 4.96
-1.89 7.1100001 5.0599999
-1.89 7.1100001 5.1599998
-1.89 7.1100001 5.2600002
-1.89 7.1100001 5.3600001
-1.89 7.1100001 5.46
-1.89 7.1100001 5.5599999
-1.89 7.1100001 5.6599998
-1.89 7.1100001 5.7600002
-1.89 7.1100001 5.8600001
-1.89 7.1100001 5.96
-1.89 7.1100001 6.0599999
-1.89 7.1100001 6.1599998
-1.89 7.1100001 6.2600002
-1.89 7.1100001 6.3600001
-1.89 7.1100001 6.46
-1.89 7.1100001 6.5599999
-1.89 7.1100001 6.6599998
-1.89 7.1100001 6.7600002
-1.89 7.1100001 6.8600001
-1.89 7.1100001 6.96
-1.89 7.1100001 7.0599999
-1.89 7.1100001 7.1599998
-1.89 7.1100001 7.2600002
-1.89 7.1100001 7.3600001
-1.89 7.1100001 7.46
-1.89 7.1100001 7.5599999
-1.89 7.1100001 7.6599998
-1.89 7.21 -0.94
-1.89 7.21 -0.83999997
-1.89 7.21 -0.74000001
-1.89 7.21 -0.63999999
-1.89 7.21 -0.54000002
-1.89 7.21 -0.44
-1.89 7.21 -0.34
-1.89 7.21 -0.23999999
-1.89 7.21 -0.14
-1.89 7.21 -0.039999999
-1.89 7.21 0.059999999
-1.89 7.21 0.16
-1.89 7.21 0.25999999
-1.89 7.21 0.36000001
-1.89 7.21 0.46000001
-1.89 7.21 0.56
-1.89 7.21 0.66000003
-1.89 7.21 0.75999999
-1.89 7.21 0.86000001
-1.89 7.21 0.95999998
-1.89 7.21 1.0599999
-1.89 7.21 1.16
-1.89 7.21 1.26
-1.89 7.21 1.36
-1.89 7.21 1.46
-1.89 7.21 1.5599999
-1.89 7.21 1.66
-1.89 7.21 1.76
-1.89 7.21 1.86
-1.89 7.21 1.96
-1.89 7.21 2.0599999
-1.89 7.21 2.1600001
-1.89 7.21 2.26
-1.89 7.21 2.3599999
-1.89 7.21 2.46
-1.89 7.21 2.5599999
-1.89 7.21 2.6600001
-1.89 7.21 2.76
-1.89 7.21 2.8599999
-1.89 7.21 2.96
-1.89 7.21 3.0599999
-1.89 7.21 3.1600001
-1.89 7.21 3.26
-1.89 7.21 3.3599999
-1.89 7.21 3.46
-1.89 7.21 3.5599999
-1.89 7.21 3.6600001
-1.89 7.21 3.76
-1.89 7.21 3.8599999
-1.89 7.21 3.96
-1.89 7.21 4.0599999
-1.89 7.21 4.1599998
-1.89 7.21 4.2600002
-1.89 7.21 4.3600001
-1.89 7.21 4.46
-1.89 7.21 4.5599999
-1.89 7.21 4.6599998
-1.89 7.21 4.7600002
-1.89 7.21 4.8600001
-1.89 7.21 4.96
-1.89 7.21 5.0599999
-1.89 7.21 5.1599998
-1.89 7.21 5.2600002
-1.89 7.21 5.3600001
-1.89 7.21 5.46
-1.89 7.21 5.5599999
-1.89 7.21 5.6599998
-1.89 7.21 5.7600002
-1.89 7.21 5.8600001
-1.89 7.21 5.96
-1.89 7.21 6.0599999
-1.89 7.21 6.1599998
-1.89 7.21 6.2600002
-1.89 7.21 6.3600001
-1.89 7.21 6.46
-1.89 7.21 6.5599999
-1.89 7.21 6.6599998
-1.89 7.21 6.7600002
-1.89 7.3099999 -0.94
-1.89 7.3099999 -0.83999997
-1.89 7.3099999 -0.74000001
-1.89 7.3099999 -0.63999999
-1.89 7.3099999 -0.54000002
-1.89 7.3099999 -0.44
-1.89 7.3099999 -0.34
-1.89 7.3099999 -0.23999999
-1.89 7.3099999 -0.14
-1.89 7.3099999 -0.039999999
-1.89 7.3099999 0.059999999
-1.89 7.3099999 0.16
-1.89 7.3099999 0.25999999
-1.89 7.3099999 0.36000001
-1.89 7.3099999 0.46000001
-1.89 7.3099999 0.56
-1.89 7.3099999 0.66000003
-1.89 7.3099999 0.75999999
-1.89 7.3099999 0.86000001
-1.89 7.3099999 0.95999998
-1.89 7.3099999 1.0599999
-1.89 7.3099999 1.16
-1.89 7.3099999 1.26
-1.89 7.3099999 1.36
-1.89 7.3099999 1.46
-1.89 7.3099999 1.5599999
-1.89 7.3099999 1.66
-1.89 7.3099999 1.76
-1.89 7.3099999 1.86
-1.89 7.3099999 1.96
-1.89 7.3099999 2.0599999
-1.89 7.3099999 2.1600001
-1.89 7.3099999 2.26
-1.89 7.3099999 2.3599999
-1.89 7.3099999 2.46
-1.89 7.3099999 2.5599999
-1.89 7.3099999 2.6600001
-1.89 7.3099999 2.76
-1.89 7.3099999 2.8599999
-1.89 7.3099999 2.96
-1.89 7.3099999 3.0599999
-1.89 7.3099999 3.1600001
-1.89 7.3099999 3.26
-1.89 7.3099999 3.3599999
-1.89 7.3099999 3.46
-1.89 7.3099999 3.5599999
-1.89 7.3099999 3.6600001
-1.89 7.3099999 3.76
-1.89 7.3099999 3.8599999
-1.89 7.3099999 3.96
-1.89 7.3099999 4.0599999
-1.89 7.3099999 4.1599998
-1.89 7.3099999 4.2600002
-1.89 7.3099999 4.3600001
-1.89 7.3099999 4.46
-1.89 7.3099999 4.5599999
-1.89 7.3099999 4.6599998
-1.89 7.3099999 4.7600002
-1.89 7.3099999 4.8600001
-1.89 7.3099999 4.96
-1.89 7.3099999 5.0599999
-1.89 7.3099999 5.1599998
-1.89 7.3099999 5.2600002
-1.89 7.3099999 5.3600001
-1.89 7.3099999 5.46
-1.89 7.4099998 -0.94
-1.89 7.4099998 -0.83999997
-1.89 7.4099998 -0.74000001
-1.89 7.4099998 -0.63999999
-1.89 7.4099998 -0.54000002
-1.89 7.4099998 -0.44
-1.89 7.4099998 -0.34
-1.89 7.4099998 -0.23999999
-1.89 7.4099998 -0.14
-1.89 7.4099998 -0.039999999
-1.89 7.4099998 0.059999999
-1.89 7.4099998 0.16
-1.89 7.4099998 0.25999999
-1.89 7.4099998 0.36000001
-1.89 7.4099998 0.46000001
-1.89 7.4099998 0.56
-1.89 7.4099998 0.66000003
-1.89 7.4099998 0.75999999
-1.89 7.4099998 0.86000001
-1.89 7.4099998 0.95999998
-1.89 7.4099998 1.0599999
-1.89 7.4099998 1.16
-1.89 7.4099998 1.26
-1.89 7.4099998 1.36
-1.89 7.4099998 1.46
-1.89 7.4099998 1.5599999
-1.89 7.4099998 1.66
-1.89 7.4099998 1.76
-1.89 7.4099998 1.86
-1.89 7.4099998 1.96
-1.89 7.4099998 2.0599999
-1.89 7.4099998 2.1600001
-1.89 7.4099998 2.26
-1.89 7.4099998 2.3599999
-1.89 7.4099998 2.46
-1.89 7.4099998 2.5599999
-1.89 7.4099998 2.6600001
-1.89 7.4099998 2.76
-1.89 7.4099998 2.8599999
-1.89 7.4099998 2.96
-1.89 7.4099998 3.0599999
-1.89 7.4099998 3.1600001
-1.89 7.4099998 3.26
-1.89 7.4099998 3.3599999
-1.89 7.4099998 3.46
-1.89 7.4099998 3.5599999
-1.89 7.4099998 3.6600001
-1.89 7.4099998 3.76
-1.89 7.4099998 3.8599999
-1.89 7.4099998 3.96
-1.89 7.4099998 4.0599999
-1.89 7.4099998 4.1599998
-1.89 7.4099998 4.2600002
-1.89 7.4099998 4.3600001
-1.89 7.4099998 4.46
-1.89 7.4099998 4.5599999
-1.89 7.4099998 4.6599998
-1.89 7.4099998 4.7600002
-1.89 7.4099998 4.8600001
-1.89 7.4099998 4.96
-1.89 7.4099998 5.0599999
-1.89 7.4099998 5.1599998
-1.89 7.4099998 5.2600002
-1.89 7.4099998 5.3600001
-1.89 7.4099998 5.46
-1.89 7.4099998 5.5599999
-1.89 7.4099998 5.6599998
-1.89 7.4099998 5.7600002
-1.89 7.4099998 5.8600001
-1.89 7.4099998 5.96
-1.89 7.4099998 6.0599999
-1.89 7.4099998 6.1599998
-1.89 7.4099998 6.2600002
-1.89 7.4099998 6.3600001
-1.89 7.4099998 6.46
-1.89 7.4099998 6.5599999
-1.89 7.4099998 6.6599998
-1.89 7.4099998 6.7600002
-1.89 7.4099998 6.8600001
-1.89 7.4099998 6.96
-1.89 7.4099998 7.0599999
-1.89 7.4099998 7.1599998
-1.89 7.4099998 7.2600002
-1.89 7.4099998 7.3600001
-1.89 7.4099998 7.46
-1.79 6.8099999 -0.94
-1.79 6.8099999 -0.83999997
-1.79 6.8099999 -0.74000001
-1.79 6.8099999 -0.63999999
-1.79 6.8099999 -0.54000002
-1.79 6.8099999 -0.44
-1.79 6.8099999 -0.34
-1.79 6.8099999 -0.23999999
-1.79 6.8099999 -0.14
-1.79 6.8099999 -0.039999999
-1.79 6.8099999 0.059999999
-1.79 6.8099999 0.16
-1.79 6.8099999 0.25999999
-1.79 6.8099999 0.36000001
-1.79 6.8099999 0.46000001
-1.79 6.8099999 0.56
-1.79 6.8099999 0.66000003
-1.79 6.8099999 0.75999999
-1.79 6.8099999 0.86000001
-1.79 6.8099999 0.95999998
-1.79 6.8099999 1.0599999
-1.79 6.8099999 1.16
-1.79 6.8099999 1.26
-1.79 6.8099999 1.36
-1.79 6.8099999 1.46
-1.79 6.8099999 1.5599999
-1.79 6.8099999 1.66
-1.79 6.8099999 1.76
-1.79 6.8099999 1.86
-1.79 6.8099999 1.96
-1.79 6.8099999 2.0599999
-1.79 6.8099999 2.1600001
-1.79 6.8099999 2.26
-1.79 6.8099999 2.3599999
-1.79 6.8099999 2.46
-1.79 6.8099999 2.5599999
-1.79 6.8099999 2.6600001
-1.79 6.8099999 2.76
-1.79 6.8099999 2.8599999
-1.79 6.8099999 2.96
-1.79 6.8099999 3.0599999
-1.79 6.8099999 3.1600001
-1.79 6.8099999 3.26
-1.79 6.8099999 3.3599999
-1.79 6.8099999 3.46
-1.79 6.8099999 3.5599999
-1.79 6.8099999 3.6600001
-1.79 6.8099999 3.76
-1.79 6.8099999 3.8599999
-1.79 6.8099999 3.96
-1.79 6.8099999 4.0599999
-1.79 6.8099999 4.1599998
-1.79 6.8099999 4.2600002
-1.79 6.8099999 4.3600001
-1.79 6.8099999 4.46
-1.79 6.8099999 4.5599999
-1.79 6.8099999 4.6599998
-1.79 6.8099999 4.7600002
-1.79 6.8099999 4.8600001
-1.79 6.8099999 4.96
-1.79 6.8099999 5.0599999
-1.79 6.8099999 5.1599998
-1.79 6.8099999 5.2600002
-1.79 6.9099998 -0.94
-1.79 6.9099998 -0.83999997
-1.79 6.9099998 -0.74000001
-1.79 6.9099998 -0.63999999
-1.79 6.9099998 -0.54000002
-1.79 6.9099998 -0.44
-1.79 6.9099998 -0.34
-1.79 6.9099998 -0.23999999
-1.79 6.9099998 -0.14
-1.79 6.9099998 -0.039999999
-1.79 6.9099998 0.059999999
-1.79 6.9099998 0.16
-1.79 6.9099998 0.25999999
-1.79 6.9099998 0.36000001
-1.79 6.9099998 0.46000001
-1.79 6.9099998 0.56
-1.79 6.9099998 0.66000003
-1.79 6.9099998 0.75999999
-1.79 6.9099998 0.86000001
-1.79 6.9099998 0.95999998
-1.79 6.9099998 1.0599999
-1.79 6.9099998 1.16
-1.79 6.9099998 1.26
-1.79 6.9099998 1.36
-1.79 6.9099998 1.46
-1.79 6.9099998 1.5599999
-1.79 6.9099998 1.66
-1.79 6.9099998 1.76
-1.79 6.9099998 1.86
-1.79 6.9099998 1.96
-1.79 6.9099998 2.0599999
-1.79 6.9099998 2.1600001
-1.79 6.9099998 2.26
-1.79 6.9099998 2.3599999
-1.79 6.9099998 2.46
-1.79 6.9099998 2.5599999
-1.79 6.9099998 2.6600001
-1.79 6.9099998 2.76
