# .PCD v0.7 - Point Cloud Data file format
VERSION 0.7
FIELDS x y z
SIZE 4 4 4
TYPE F F F
COUNT 1 1 1
WIDTH 1866
HEIGHT 1
VIEWPOINT 0 0 0 1 0 0 0
POINTS 1866
DATA ascii
1.61 3.9100001 -0.44
1.61 3.9100001 -0.34
1.61 3.9100001 -0.23999999
1.61 3.9100001 -0.14
1.61 3.9100001 -0.039999999
1.61 3.9100001 0.059999999
1.61 3.9100001 0.16
1.61 3.9100001 0.25999999
1.61 3.9100001 0.36000001
1.61 3.9100001 0.46000001
1.61 3.9100001 0.56
1.61 3.9100001 0.66000003
1.61 3.9100001 0.75999999
1.61 3.9100001 0.86000001
1.61 3.9100001 0.95999998
1.61 3.9100001 1.0599999
1.61 3.9100001 1.16
1.61 3.9100001 1.26
1.61 3.9100001 1.36
1.61 3.9100001 1.46
1.61 3.9100001 1.5599999
1.61 3.9100001 1.66
1.61 3.9100001 1.76
1.61 3.9100001 1.86
1.61 3.9100001 1.96
1.61 3.9100001 2.0599999
1.61 3.9100001 2.1600001
1.61 3.9100001 2.26
1.61 3.9100001 2.3599999
1.61 3.9100001 2.46
1.61 3.9100001 2.5599999
1.61 3.9100001 2.6600001
1.61 3.9100001 2.76
1.61 3.9100001 2.8599999
1.61 3.9100001 2.96
1.61 3.9100001 3.0599999
1.61 3.9100001 3.1600001
1.61 3.9100001 3.26
1.61 3.9100001 3.3599999
1.61 3.9100001 3.46
1.61 3.9100001 3.5599999
1.61 3.9100001 3.6600001
1.61 3.9100001 3.76
1.61 3.9100001 3.8599999
1.61 3.9100001 3.96
1.61 3.9100001 4.0599999
1.61 3.9100001 4.1599998
1.61 3.9100001 4.2600002
1.61 3.9100001 4.3600001
1.61 3.9100001 4.46
1.61 3.9100001 4.5599999
1.61 3.9100001 4.6599998
1.61 3.9100001 4.7600002
1.61 3.9100001 4.8600001
1.61 3.9100001 4.96
1.61 3.9100001 5.0599999
1.61 3.9100001 5.1599998
1.61 3.9100001 5.2600002
1.61 3.9100001 5.3600001
1.61 3.9100001 5.46
1.61 3.9100001 5.5599999
1.61 3.9100001 5.6599998
1.61 3.9100001 5.7600002
1.61 3.9100001 5.8600001
1.61 3.9100001 5.96
1.61 3.9100001 6.0599999
1.61 3.9100001 6.1599998
1.61 3.9100001 6.2600002
1.61 3.9100001 6.3600001
1.61 3.9100001 6.46
1.61 3.9100001 6.5599999
1.61 4.0100002 -0.94
1.61 4.0100002 -0.83999997
1.61 4.0100002 -0.74000001
1.61 4.0100002 -0.63999999
1.61 4.0100002 -0.54000002
1.61 4.0100002 -0.44
1.61 4.0100002 -0.34
1.61 4.0100002 -0.23999999
1.61 4.0100002 -0.14
1.61 4.0100002 -0.039999999
1.61 4.0100002 0.059999999
1.61 4.0100002 0.16
1.61 4.0100002 0.25999999
1.61 4.0100002 0.36000001
1.61 4.0100002 0.46000001
1.61 4.0100002 0.56
1.61 4.0100002 0.66000003
1.61 4.0100002 0.75999999
1.61 4.0100002 0.86000001
1.61 4.0100002 0.95999998
1.61 4.0100002 1.0599999
1.61 4.0100002 1.16
1.61 4.0100002 1.26
1.61 4.0100002 1.36
1.61 4.0100002 1.46
1.61 4.0100002 1.5599999
1.61 4.0100002 1.66
1.61 4.0100002 1.76
1.61 4.0100002 1.86
1.61 4.0100002 1.96
1.61 4.0100002 2.0599999
1.61 4.0100002 2.1600001
1.61 4.0100002 2.26
1.61 4.0100002 2.3599999
1.61 4.0100002 2.46
1.61 4.0100002 2.5599999
1.61 4.0100002 2.6600001
1.61 4.0100002 2.76
1.61 4.0100002 2.8599999
1.61 4.0100002 2.96
1.61 4.0100002 3.0599999
1.61 4.0100002 3.1600001
1.61 4.0100002 3.26
1.61 4.0100002 3.3599999
1.61 4.0100002 3.46
1.61 4.0100002 3.5599999
1.61 4.0100002 3.6600001
1.61 4.0100002 3.76
1.61 4.0100002 3.8599999
1.61 4.0100002 3.96
1.61 4.0100002 4.0599999
1.61 4.0100002 4.1599998
1.61 4.0100002 4.2600002
1.61 4.0100002 4.3600001
1.61 4.0100002 4.46
1.61 4.0100002 4.5599999
1.61 4.0100002 4.6599998
1.61 4.0100002 4.7600002
1.61 4.0100002 4.8600001
1.61 4.0100002 4.96
1.61 4.0100002 5.0599999
1.61 4.0100002 5.1599998
1.61 4.1100001 -0.94
1.61 4.1100001 -0.83999997
1.61 4.1100001 -0.74000001
1.61 4.1100001 -0.63999999
1.61 4.1100001 -0.54000002
1.61 4.1100001 -0.44
1.61 4.1100001 -0.34
1.61 4.1100001 -0.23999999
1.61 4.1100001 -0.14
1.61 4.1100001 -0.039999999
1.61 4.1100001 0.059999999
1.61 4.1100001 0.16
1.61 4.1100001 0.25999999
1.61 4.1100001 0.36000001
1.61 4.1100001 0.46000001
1.61 4.1100001 0.56
1.61 4.1100001 0.66000003
1.61 4.1100001 0.75999999
1.61 4.1100001 0.86000001
1.61 4.1100001 0.95999998
1.61 4.1100001 1.0599999
1.61 4.1100001 1.16
1.61 4.1100001 1.26
1.61 4.1100001 1.36
1.61 4.1100001 1.46
1.61 4.1100001 1.5599999
1.61 4.1100001 1.66
1.61 4.1100001 1.76
1.61 4.1100001 1.86
1.61 4.1100001 1.96
1.61 4.1100001 2.0599999
1.61 4.1100001 2.1600001
1.61 4.1100001 2.26
1.61 4.1100001 2.3599999
1.61 4.1100001 2.46
1.61 4.1100001 2.5599999
1.61 4.1100001 2.6600001
1.61 4.1100001 2.76
1.61 4.1100001 2.8599999
1.61 4.1100001 2.96
1.61 4.1100001 3.0599999
1.61 4.1100001 3.1600001
1.61 4.1100001 3.26
1.61 4.1100001 3.3599999
1.61 4.1100001 3.46
1.61 4.1100001 3.5599999
1.61 4.1100001 3.6600001
1.61 4.1100001 3.76
1.61 4.1100001 3.8599999
1.61 4.1100001 3.96
1.61 4.1100001 4.0599999
1.61 4.1100001 4.1599998
1.61 4.1100001 4.2600002
1.61 4.1100001 4.3600001
1.61 4.1100001 4.46
1.61 4.1100001 4.5599999
1.61 4.1100001 4.6599998
1.61 4.1100001 4.7600002
1.61 4.1100001 4.8600001
1.61 4.1100001 4.96
1.61 4.1100001 5.0599999
1.61 4.1100001 5.1599998
1.61 4.1100001 5.2600002
1.61 4.1100001 5.3600001
1.61 4.1100001 5.46
1.61 4.1100001 5.5599999
1.61 4.1100001 5.6599998
1.61 4.1100001 5.7600002
1.71 3.6099999 -0.94
1.71 3.6099999 -0.83999997
1.71 3.6099999 -0.74000001
1.71 3.6099999 -0.63999999
1.71 3.6099999 -0.54000002
1.71 3.6099999 -0.44
1.71 3.6099999 -0.34
1.71 3.6099999 -0.23999999
1.71 3.6099999 -0.14
1.71 3.6099999 -0.039999999
1.71 3.6099999 0.059999999
1.71 3.6099999 0.16
1.71 3.6099999 0.25999999
1.71 3.6099999 0.36000001
1.71 3.6099999 0.46000001
1.71 3.6099999 0.56
1.71 3.6099999 0.66000003
1.71 3.6099999 0.75999999
1.71 3.6099999 0.86000001
1.71 3.6099999 0.95999998
1.71 3.6099999 1.0599999
1.71 3.6099999 1.16
1.71 3.6099999 1.26
1.71 3.6099999 1.36
1.71 3.6099999 1.46
1.71 3.6099999 1.5599999
1.71 3.6099999 1.66
1.71 3.6099999 1.76
1.71 3.6099999 1.86
1.71 3.6099999 1.96
1.71 3.6099999 2.0599999
1.71 3.6099999 2.1600001
1.71 3.6099999 2.26
1.71 3.6099999 2.3599999
1.71 3.6099999 2.46
1.71 3.6099999 2.5599999
1.71 3.6099999 2.6600001
1.71 3.6099999 2.76
1.71 3.6099999 2.8599999
1.71 3.6099999 2.96
1.71 3.6099999 3.0599999
1.71 3.6099999 3.1600001
1.71 3.6099999 3.26
1.71 3.6099999 3.3599999
1.71 3.6099999 3.46
1.71 3.6099999 3.5599999
1.71 3.6099999 3.6600001
1.71 3.6099999 3.76
1.71 3.6099999 3.8599999
1.71 3.6099999 3.96
1.71 3.6099999 4.0599999
1.71 3.6099999 4.1599998
1.71 3.6099999 4.2600002
1.71 3.6099999 4.3600001
1.71 3.6099999 4.46
1.71 3.6099999 4.5599999
1.71 3.6099999 4.6599998
1.71 3.6099999 4.7600002
1.71 3.6099999 4.8600001
1.71 3.6099999 4.96
1.71 3.6099999 5.0599999
1.71 3.6099999 5.1599998
1.71 3.6099999 5.2600002
1.71 3.6099999 5.3600001
1.71 3.6099999 5.46
1.71 3.6099999 5.5599999
1.71 3.71 -0.94
1.71 3.71 -0.83999997
1.71 3.71 -0.74000001
1.71 3.71 -0.63999999
1.71 3.71 -0.54000002
1.71 3.71 -0.44
1.71 3.71 -0.34
1.71 3.71 -0.23999999
1.71 3.71 -0.14
1.71 3.71 -0.039999999
1.71 3.71 0.059999999
1.71 3.71 0.16
1.71 3.71 0.25999999
1.71 3.71 0.36000001
1.71 3.71 0.46000001
1.71 3.71 0.56
1.71 3.71 0.66000003
1.71 3.71 0.75999999
1.71 3.71 0.86000001
1.71 3.71 0.95999998
1.71 3.71 1.0599999
1.71 3.71 1.16
1.71 3.71 1.26
1.71 3.71 1.36
1.71 3.71 1.46
1.71 3.71 1.5599999
1.71 3.71 1.66
1.71 3.71 1.76
1.71 3.71 1.86
1.71 3.71 1.96
1.71 3.71 2.0599999
1.71 3.71 2.1600001
1.71 3.71 2.26
1.71 3.71 2.3599999
1.71 3.71 2.46
1.71 3.71 2.5599999
1.71 3.71 2.6600001
1.71 3.71 2.76
1.71 3.71 2.8599999
1.71 3.71 2.96
1.71 3.71 3.0599999
1.71 3.71 3.1600001
1.71 3.71 3.26
1.71 3.71 3.3599999
1.71 3.71 3.46
1.71 3.71 3.5599999
1.71 3.71 3.6600001
1.71 3.71 3.76
1.71 3.71 3.8599999
1.71 3.71 3.96
1.71 3.71 4.0599999
1.71 3.71 4.1599998
1.71 3.71 4.2600002
1.71 3.71 4.3600001
1.71 3.71 4.46
1.71 3.71 4.5599999
1.71 3.71 4.6599998
1.71 3.71 4.7600002
1.71 3.71 4.8600001
1.71 3.71 4.96
1.71 3.71 5.0599999
1.71 3.71 5.1599998
1.71 3.71 5.2600002
1.71 3.71 5.3600001
1.71 3.71 5.46
1.71 3.71 5.5599999
1.71 3.71 5.6599998
1.71 3.71 5.7600002
1.71 3.71 5.8600001
1.71 3.71 5.96
1.71 3.71 6.0599999
1.71 3.71 6.1599998
1.71 3.71 6.2600002
1.71 3.71 6.3600001
1.71 3.71 6.46
1.71 3.71 6.5599999
1.71 3.71 6.6599998
1.71 3.71 6.7600002
1.71 3.71 6.8600001
1.71 3.71 6.96
1.71 3.71 7.0599999
1.71 3.71 7.1599998
1.71 3.8099999 -0.94
1.71 3.8099999 -0.83999997
1.71 3.8099999 -0.74000001
1.71 3.8099999 -0.63999999
1.71 3.8099999 -0.54000002
1.71 3.8099999 -0.44
1.71 3.8099999 -0.34
1.71 3.8099999 -0.23999999
1.71 3.8099999 -0.14
1.71 3.8099999 -0.039999999
1.71 3.8099999 0.059999999
1.71 3.8099999 0.16
1.71 3.8099999 0.25999999
1.71 3.8099999 0.36000001
1.71 3.8099999 0.46000001
1.71 3.8099999 0.56
1.71 3.8099999 0.66000003
1.71 3.8099999 0.75999999
1.71 3.8099999 0.86000001
1.71 3.8099999 0.95999998
1.71 3.8099999 1.0599999
1.71 3.8099999 1.16
1.71 3.8099999 1.26
1.71 3.8099999 1.36
1.71 3.8099999 1.46
1.71 3.8099999 1.5599999
1.71 3.8099999 1.66
1.71 3.8099999 1.76
1.71 3.8099999 1.86
1.71 3.8099999 1.96
1.71 3.8099999 2.0599999
1.71 3.8099999 2.1600001
1.71 3.8099999 2.26
1.71 3.8099999 2.3599999
1.71 3.8099999 2.46
1.71 3.8099999 2.5599999
1.71 3.8099999 2.6600001
1.71 3.8099999 2.76
1.71 3.8099999 2.8599999
1.71 3.8099999 2.96
1.71 3.8099999 3.0599999
1.71 3.8099999 3.1600001
1.71 3.8099999 3.26
1.71 3.8099999 3.3599999
1.71 3.8099999 3.46
1.71 3.8099999 3.5599999
1.71 3.8099999 3.6600001
1.71 3.8099999 3.76
1.71 3.8099999 3.8599999
1.71 3.8099999 3.96
1.71 3.8099999 4.0599999
1.71 3.8099999 4.1599998
1.71 3.8099999 4.2600002
1.71 3.8099999 4.3600001
1.71 3.8099999 4.46
1.71 3.8099999 4.5599999
1.71 3.8099999 4.6599998
1.71 3.8099999 4.7600002
1.71 3.8099999 4.8600001
1.71 3.8099999 4.96
1.71 3.8099999 5.0599999
1.71 3.8099999 5.1599998
1.71 3.8099999 5.2600002
1.71 3.8099999 5.3600001
1.71 3.8099999 5.46
1.71 3.8099999 5.5599999
1.71 3.8099999 5.6599998
1.71 3.8099999 5.7600002
1.71 3.8099999 5.8600001
1.71 3.8099999 5.96
1.71 3.8099999 6.0599999
1.71 3.8099999 6.1599998
1.71 3.8099999 6.2600002
1.71 3.8099999 6.3600001
1.71 3.8099999 6.46
1.71 3.8099999 6.5599999
1.71 3.8099999 6.6599998
1.71 3.8099999 6.7600002
1.71 3.8099999 6.8600001
1.71 3.8099999 6.96
1.71 3.8099999 7.0599999
1.71 3.8099999 7.1599998
1.71 3.8099999 7.2600002
1.71 3.8099999 7.3600001
1.71 3.9100001 -0.94
1.71 3.9100001 -0.83999997
1.71 3.9100001 -0.74000001
1.71 3.9100001 -0.63999999
1.71 3.9100001 -0.54000002
1.71 3.9100001 -0.44
1.71 3.9100001 -0.34
1.71 3.9100001 -0.23999999
1.71 3.9100001 -0.14
1.71 3.9100001 -0.039999999
1.71 3.9100001 0.059999999
1.71 3.9100001 0.16
1.71 3.9100001 0.25999999
1.71 3.9100001 0.36000001
1.71 3.9100001 0.46000001
1.71 3.9100001 0.56
1.71 3.9100001 0.66000003
1.71 3.9100001 0.75999999
1.71 3.9100001 0.86000001
1.71 3.9100001 0.95999998
1.71 3.9100001 1.0599999
1.71 3.9100001 1.16
1.71 3.9100001 1.26
1.71 3.9100001 1.36
1.71 3.9100001 1.46
1.71 3.9100001 1.5599999
1.71 3.9100001 1.66
1.71 3.9100001 1.76
1.71 3.9100001 1.86
1.71 3.9100001 1.96
1.71 3.9100001 2.0599999
1.71 3.9100001 2.1600001
1.71 3.9100001 2.26
1.71 3.9100001 2.3599999
1.71 3.9100001 2.46
1.71 3.9100001 2.5599999
1.71 3.9100001 2.6600001
1.71 3.9100001 2.76
1.71 3.9100001 2.8599999
1.71 3.9100001 2.96
1.71 3.9100001 3.0599999
1.71 3.9100001 3.1600001
1.71 3.9100001 3.26
1.71 3.9100001 3.3599999
1.71 3.9100001 3.46
1.71 3.9100001 3.5599999
1.71 3.9100001 3.6600001
1.71 3.9100001 3.76
1.71 3.9100001 3.8599999
1.71 3.9100001 3.96
1.71 3.9100001 4.0599999
1.71 3.9100001 4.1599998
1.71 3.9100001 4.2600002
1.71 3.9100001 4.3600001
1.71 3.9100001 4.46
1.71 3.9100001 4.5599999
1.71 3.9100001 4.6599998
1.71 3.9100001 4.7600002
1.71 3.9100001 4.8600001
1.71 3.9100001 4.96
1.71 3.9100001 5.0599999
1.71 3.9100001 5.1599998
1.71 3.9100001 5.2600002
1.71 3.9100001 5.3600001
1.71 3.9100001 5.46
1.71 3.9100001 5.5599999
1.71 3.9100001 5.6599998
1.71 3.9100001 5.7600002
1.71 3.9100001 5.8600001
1.71 3.9100001 5.96
1.71 3.9100001 6.0599999
1.71 3.9100001 6.1599998
1.71 3.9100001 6.2600002
1.71 3.9100001 6.3600001
1.71 3.9100001 6.46
1.71 3.9100001 6.5599999
1.71 3.9100001 6.6599998
1.71 3.9100001 6.7600002
1.71 3.9100001 6.8600001
1.71 3.9100001 6.96
1.71 4.0100002 -0.94
1.71 4.0100002 -0.83999997
1.71 4.0100002 -0.74000001
1.71 4.0100002 -0.63999999
1.71 4.0100002 -0.54000002
1.71 4.0100002 -0.44
1.71 4.0100002 -0.34
1.71 4.0100002 -0.23999999
1.71 4.0100002 -0.14
1.71 4.0100002 -0.039999999
1.71 4.0100002 0.059999999
1.71 4.0100002 0.16
1.71 4.0100002 0.25999999
1.71 4.0100002 0.36000001
1.71 4.0100002 0.46000001
1.71 4.0100002 0.56
1.71 4.0100002 0.66000003
1.71 4.0100002 0.75999999
1.71 4.0100002 0.86000001
1.71 4.0100002 0.95999998
1.71 4.0100002 1.0599999
1.71 4.0100002 1.16
1.71 4.0100002 1.26
1.71 4.0100002 1.36
1.71 4.0100002 1.46
1.71 4.0100002 1.5599999
1.71 4.0100002 1.66
1.71 4.0100002 1.76
1.71 4.0100002 1.86
1.71 4.0100002 1.96
1.71 4.0100002 2.0599999
1.71 4.0100002 2.1600001
1.71 4.0100002 2.26
1.71 4.0100002 2.3599999
1.71 4.0100002 2.46
1.71 4.0100002 2.5599999
1.71 4.0100002 2.6600001
1.71 4.0100002 2.76
1.71 4.0100002 2.8599999
1.71 4.0100002 2.96
1.71 4.0100002 3.0599999
1.71 4.0100002 3.1600001
1.71 4.0100002 3.26
1.71 4.0100002 3.3599999
1.71 4.0100002 3.46
1.71 4.0100002 3.5599999
1.71 4.0100002 3.6600001
1.71 4.0100002 3.76
1.71 4.0100002 3.8599999
1.71 4.0100002 3.96
1.71 4.0100002 4.0599999
1.71 4.0100002 4.1599998
1.71 4.0100002 4.2600002
1.71 4.0100002 4.3600001
1.71 4.0100002 4.46
1.71 4.0100002 4.5599999
1.71 4.0100002 4.6599998
1.71 4.0100002 4.7600002
1.71 4.0100002 4.8600001
1.71 4.0100002 4.96
1.71 4.0100002 5.0599999
1.71 4.0100002 5.1599998
1.71 4.0100002 5.2600002
1.71 4.0100002 5.3600001
1.71 4.0100002 5.46
1.71 4.0100002 5.5599999
1.71 4.0100002 5.6599998
1.71 4.0100002 5.7600002
1.71 4.0100002 5.8600001
1.71 4.0100002 5.96
1.71 4.1100001 -0.94
1.71 4.1100001 -0.83999997
1.71 4.1100001 -0.74000001
1.71 4.1100001 -0.63999999
1.71 4.1100001 -0.54000002
1.71 4.1100001 -0.44
1.71 4.1100001 -0.34
1.71 4.1100001 -0.23999999
1.71 4.1100001 -0.14
1.71 4.1100001 -0.039999999
1.71 4.1100001 0.059999999
1.71 4.1100001 0.16
1.71 4.1100001 0.25999999
1.71 4.1100001 0.36000001
1.71 4.1100001 0.46000001
1.71 4.1100001 0.56
1.71 4.1100001 0.66000003
1.71 4.1100001 0.75999999
1.71 4.1100001 0.86000001
1.71 4.1100001 0.95999998
1.71 4.1100001 1.0599999
1.71 4.1100001 1.16
1.71 4.1100001 1.26
1.71 4.1100001 1.36
1.71 4.1100001 1.46
1.71 4.1100001 1.5599999
1.71 4.1100001 1.66
1.71 4.1100001 1.76
1.71 4.1100001 1.86
1.71 4.1100001 1.96
1.71 4.1100001 2.0599999
1.71 4.1100001 2.1600001
1.71 4.1100001 2.26
1.71 4.1100001 2.3599999
1.71 4.1100001 2.46
1.71 4.1100001 2.5599999
1.71 4.1100001 2.6600001
1.71 4.1100001 2.76
1.71 4.1100001 2.8599999
1.71 4.1100001 2.96
1.71 4.1100001 3.0599999
1.71 4.1100001 3.1600001
1.71 4.1100001 3.26
1.71 4.1100001 3.3599999
1.71 4.1100001 3.46
1.71 4.1100001 3.5599999
1.71 4.1100001 3.6600001
1.71 4.1100001 3.76
1.71 4.1100001 3.8599999
1.71 4.1100001 3.96
1.71 4.1100001 4.0599999
1.71 4.1100001 4.1599998
1.71 4.1100001 4.2600002
1.71 4.1100001 4.3600001
1.71 4.1100001 4.46
1.71 4.1100001 4.5599999
1.71 4.1100001 4.6599998
1.71 4.1100001 4.7600002
1.71 4.1100001 4.8600001
1.71 4.1100001 4.96
1.71 4.1100001 5.0599999
1.71 4.1100001 5.1599998
1.71 4.1100001 5.2600002
1.71 4.1100001 5.3600001
1.71 4.1100001 5.46
1.71 4.1100001 5.5599999
1.71 4.1100001 5.6599998
1.71 4.1100001 5.7600002
1.71 4.1100001 5.8600001
1.71 4.1100001 5.96
1.71 4.1100001 6.0599999
1.71 4.1100001 6.1599998
1.71 4.1100001 6.2600002
1.71 4.1100001 6.3600001
1.71 4.1100001 6.46
1.71 4.1100001 6.5599999
1.71 4.1100001 6.6599998
1.71 4.1100001 6.7600002
1.8099999 3.8099999 -0.94
1.8099999 3.8099999 -0.83999997
1.8099999 3.8099999 -0.74000001
1.8099999 3.8099999 -0.63999999
1.8099999 3.8099999 -0.54000002
1.8099999 3.8099999 -0.44
1.8099999 3.8099999 -0.34
1.8099999 3.8099999 -0.23999999
1.8099999 3.8099999 -0.14
1.8099999 3.8099999 -0.039999999
1.8099999 3.8099999 0.059999999
1.8099999 3.8099999 0.16
1.8099999 3.8099999 0.25999999
1.8099999 3.8099999 0.36000001
1.8099999 3.8099999 0.46000001
1.8099999 3.8099999 0.56
1.8099999 3.8099999 0.66000003
1.8099999 3.8099999 0.75999999
1.8099999 3.8099999 0.86000001
1.8099999 3.8099999 0.95999998
1.8099999 3.8099999 1.0599999
1.8099999 3.8099999 1.16
1.8099999 3.8099999 1.26
1.8099999 3.8099999 1.36
1.8099999 3.8099999 1.46
1.8099999 3.8099999 1.5599999
1.8099999 3.8099999 1.66
1.8099999 3.8099999 1.76
1.8099999 3.8099999 1.86
1.8099999 3.8099999 1.96
1.8099999 3.8099999 2.0599999
1.8099999 3.8099999 2.1600001
1.8099999 3.8099999 2.26
1.8099999 3.8099999 2.3599999
1.8099999 3.8099999 2.46
1.8099999 3.8099999 2.5599999
1.8099999 3.8099999 2.6600001
1.8099999 3.8099999 2.76
1.8099999 3.8099999 2.8599999
1.8099999 3.8099999 2.96
1.8099999 3.8099999 3.0599999
1.8099999 3.8099999 3.1600001
1.8099999 3.8099999 3.26
1.8099999 3.8099999 3.3599999
1.8099999 3.8099999 3.46
1.8099999 3.8099999 3.5599999
1.8099999 3.8099999 3.6600001
1.8099999 3.8099999 3.76
1.8099999 3.8099999 3.8599999
1.8099999 3.8099999 3.96
1.8099999 3.8099999 4.0599999
1.8099999 3.8099999 4.1599998
1.8099999 3.8099999 4.2600002
1.8099999 3.8099999 4.3600001
1.8099999 3.8099999 4.46
1.8099999 3.8099999 4.5599999
1.8099999 3.8099999 4.6599998
1.8099999 3.8099999 4.7600002
1.8099999 3.8099999 4.8600001
1.8099999 3.8099999 4.96
1.8099999 3.8099999 5.0599999
1.8099999 3.8099999 5.1599998
1.8099999 3.8099999 5.2600002
1.8099999 3.8099999 5.3600001
1.8099999 3.8099999 5.46
1.8099999 3.8099999 5.5599999
1.8099999 3.9100001 -0.94
1.8099999 3.9100001 -0.83999997
1.8099999 3.9100001 -0.74000001
1.8099999 3.9100001 -0.63999999
1.8099999 3.9100001 -0.54000002
1.8099999 3.9100001 -0.44
1.8099999 3.9100001 -0.34
1.8099999 3.9100001 -0.23999999
1.8099999 3.9100001 -0.14
1.8099999 3.9100001 -0.039999999
1.8099999 3.9100001 0.059999999
1.8099999 3.9100001 0.16
1.8099999 3.9100001 0.25999999
1.8099999 3.9100001 0.36000001
1.8099999 3.9100001 0.46000001
1.8099999 3.9100001 0.56
1.8099999 3.9100001 0.66000003
1.8099999 3.9100001 0.75999999
1.8099999 3.9100001 0.86000001
1.8099999 3.9100001 0.95999998
1.8099999 3.9100001 1.0599999
1.8099999 3.9100001 1.16
1.8099999 3.9100001 1.26
1.8099999 3.9100001 1.36
1.8099999 3.9100001 1.46
1.8099999 3.9100001 1.5599999
1.8099999 3.9100001 1.66
1.8099999 3.9100001 1.76
1.8099999 3.9100001 1.86
1.8099999 3.9100001 1.96
1.8099999 3.9100001 2.0599999
1.8099999 3.9100001 2.1600001
1.8099999 3.9100001 2.26
1.8099999 3.9100001 2.3599999
1.8099999 3.9100001 2.46
1.8099999 3.9100001 2.5599999
1.8099999 3.9100001 2.6600001
1.8099999 3.9100001 2.76
1.8099999 3.9100001 2.8599999
1.8099999 3.9100001 2.96
1.8099999 3.9100001 3.0599999
1.8099999 3.9100001 3.1600001
1.8099999 3.9100001 3.26
1.8099999 3.9100001 3.3599999
1.8099999 3.9100001 3.46
1.8099999 3.9100001 3.5599999
1.8099999 3.9100001 3.6600001
1.8099999 3.9100001 3.76
1.8099999 3.9100001 3.8599999
1.8099999 3.9100001 3.96
1.8099999 3.9100001 4.0599999
1.8099999 3.9100001 4.1599998
1.8099999 3.9100001 4.2600002
1.8099999 3.9100001 4.3600001
1.8099999 3.9100001 4.46
1.8099999 3.9100001 4.5599999
1.8099999 3.9100001 4.6599998
1.8099999 3.9100001 4.7600002
1.8099999 3.9100001 4.8600001
1.8099999 3.9100001 4.96
1.8099999 3.9100001 5.0599999
1.8099999 3.9100001 5.1599998
-10.09 -10.09 -0.94
-10.09 -10.09 -0.83999997
-10.09 -10.09 -0.74000001
-10.09 -10.09 -0.63999999
-10.09 -10.09 -0.54000002
-10.09 -10.09 -0.44
-10.09 -10.09 -0.34
-10.09 -10.09 -0.23999999
-10.09 -10.09 -0.14
-10.09 -10.09 -0.039999999
-10.09 -10.09 0.059999999
-10.09 -10.09 0.16
-10.09 -10.09 0.25999999
-10.09 -10.09 0.36000001
-10.09 -10.09 0.46000001
-10.09 -10.09 0.56
-10.09 -10.09 0.66000003
-10.09 -10.09 0.75999999
-10.09 -10.09 0.86000001
-10.09 -10.09 0.95999998
-10.09 -10.09 1.0599999
-10.09 -10.09 1.16
-10.09 -10.09 1.26
-10.09 -10.09 1.36
-10.09 -10.09 1.46
-10.09 -10.09 1.5599999
-10.09 -10.09 1.66
-10.09 -10.09 1.76
-10.09 -10.09 1.86
-10.09 -10.09 1.96
-10.09 -10.09 2.0599999
-10.09 -10.09 2.1600001
-10.09 -10.09 2.26
-10.09 -10.09 2.3599999
-10.09 -10.09 2.46
-10.09 -10.09 2.5599999
-10.09 -10.09 2.6600001
-10.09 -10.09 2.76
-10.09 -10.09 2.8599999
-10.09 -10.09 2.96
-10.09 -10.09 3.0599999
-10.09 -10.09 3.1600001
-10.09 -10.09 3.26
-10.09 -10.09 3.3599999
-10.09 -10.09 3.46
-10.09 -10.09 3.5599999
-10.09 -10.09 3.6600001
-10.09 -10.09 3.76
-10.09 -10.09 3.8599999
-10.09 -10.09 3.96
-10.09 -10.09 4.0599999
-10.09 -10.09 4.1599998
-10.09 -10.09 4.2600002
-10.09 -10.09 4.3600001
-10.09 -10.09 4.46
-10.09 -10.09 4.5599999
-10.09 -10.09 4.6599998
-10.09 -10.09 4.7600002
-10.09 -10.09 4.8600001
-10.09 -10.09 4.96
-10.09 -10.09 5.0599999
-10.09 -10.09 5.1599998
-10.09 -10.09 5.2600002
-10.09 -10.09 5.3600001
-10.09 -10.09 5.46
-10.09 -10.09 5.5599999
-10.09 -10.09 5.6599998
-10.09 -10.09 5.7600002
-10.09 -10.09 5.8600001
-10.09 -10.09 5.96
-10.09 -10.09 6.0599999
-10.09 -10.09 6.1599998
-10.09 -10.09 6.2600002
-10.09 -10.09 6.3600001
-10.09 -10.09 6.46
-10.09 -10.09 6.5599999
-10.09 -10.09 6.6599998
-10.09 -10.09 6.7600002
-10.09 -10.09 6.8600001
-10.09 -10.09 6.96
-10.09 -10.09 7.0599999
-10.09 -10.09 7.1599998
-10.09 -10.09 7.2600002
-10.09 -10.09 7.3600001
-10.09 -10.09 7.46
-10.09 -10.09 7.5599999
-10.09 -9.9899998 -0.94
-10.09 -9.9899998 -0.83999997
-10.09 -9.9899998 -0.74000001
-10.09 -9.9899998 -0.63999999
-10.09 -9.9899998 -0.54000002
-10.09 -9.9899998 -0.44
-10.09 -9.9899998 -0.34
-10.09 -9.9899998 -0.23999999
-10.09 -9.9899998 -0.14
-10.09 -9.9899998 -0.039999999
-10.09 -9.9899998 0.059999999
-10.09 -9.9899998 0.16
-10.09 -9.9899998 0.25999999
-10.09 -9.9899998 0.36000001
-10.09 -9.9899998 0.46000001
-10.09 -9.9899998 0.56
-10.09 -9.9899998 0.66000003
-10.09 -9.9899998 0.75999999
-10.09 -9.9899998 0.86000001
-10.09 -9.9899998 0.95999998
-10.09 -9.9899998 1.0599999
-10.09 -9.9899998 1.16
-10.09 -9.9899998 1.26
-10.09 -9.9899998 1.36
-10.09 -9.9899998 1.46
-10.09 -9.9899998 1.5599999
-10.09 -9.9899998 1.66
-10.09 -9.9899998 1.76
-10.09 -9.9899998 1.86
-10.09 -9.9899998 1.96
-10.09 -9.9899998 2.0599999
-10.09 -9.9899998 2.1600001
-10.09 -9.9899998 2.26
-10.09 -9.9899998 2.3599999
-10.09 -9.9899998 2.46
-10.09 -9.9899998 2.5599999
-10.09 -9.9899998 2.6600001
-10.09 -9.9899998 2.76
-10.09 -9.9899998 2.8599999
-10.09 -9.9899998 2.96
-10.09 -9.9899998 3.0599999
-10.09 -9.9899998 3.1600001
-10.09 -9.9899998 3.26
-10.09 -9.9899998 3.3599999
-10.09 -9.9899998 3.46
-10.09 -9.9899998 3.5599999
-10.09 -9.9899998 3.6600001
-10.09 -9.9899998 3.76
-10.09 -9.9899998 3.8599999
-10.09 -9.9899998 3.96
-10.09 -9.9899998 4.0599999
-10.09 -9.9899998 4.1599998
-10.09 -9.9899998 4.2600002
-10.09 -9.9899998 4.3600001
-10.09 -9.9899998 4.46
-10.09 -9.9899998 4.5599999
-10.09 -9.9899998 4.6599998
-10.09 -9.9899998 4.7600002
-10.09 -9.9899998 4.8600001
-10.09 -9.9899998 4.96
-10.09 -9.9899998 5.0599999
-10.09 -9.9899998 5.1599998
-10.09 -9.9899998 5.2600002
-10.09 -9.9899998 5.3600001
-10.09 -9.9899998 5.46
-10.09 -9.9899998 5.5599999
-10.09 -9.9899998 5.6599998
-10.09 -9.9899998 5.7600002
-10.09 -9.9899998 5.8600001
-10.09 -9.9899998 5.96
-10.09 -9.9899998 6.0599999
-10.09 -9.9899998 6.1599998
-10.09 -9.9899998 6.2600002
-10.09 -9.9899998 6.3600001
-10.09 -9.9899998 6.46
-10.09 -9.9899998 6.5599999
-10.09 -9.9899998 6.6599998
-10.09 -9.9899998 6.7600002
-10.09 -9.9899998 6.8600001
-10.09 -9.9899998 6.96
-10.09 -9.9899998 7.0599999
-10.09 -9.8900003 -0.94
-10.09 -9.8900003 -0.83999997
-10.09 -9.8900003 -0.74000001
-10.09 -9.8900003 -0.63999999
-10.09 -9.8900003 -0.54000002
-10.09 -9.8900003 -0.44
-10.09 -9.8900003 -0.34
-10.09 -9.8900003 -0.23999999
-10.09 -9.8900003 -0.14
-10.09 -9.8900003 -0.039999999
-10.09 -9.8900003 0.059999999
-10.09 -9.8900003 0.16
-10.09 -9.8900003 0.25999999
-10.09 -9.8900003 0.36000001
-10.09 -9.8900003 0.46000001
-10.09 -9.8900003 0.56
-10.09 -9.8900003 0.66000003
-10.09 -9.8900003 0.75999999
-10.09 -9.8900003 0.86000001
-10.09 -9.8900003 0.95999998
-10.09 -9.8900003 1.0599999
-10.09 -9.8900003 1.16
-10.09 -9.8900003 1.26
-10.09 -9.8900003 1.36
-10.09 -9.8900003 1.46
-10.09 -9.8900003 1.5599999
-10.09 -9.8900003 1.66
-10.09 -9.8900003 1.76
-10.09 -9.8900003 1.86
-10.09 -9.8900003 1.96
-10.09 -9.8900003 2.0599999
-10.09 -9.8900003 2.1600001
-10.09 -9.8900003 2.26
-10.09 -9.8900003 2.3599999
-10.09 -9.8900003 2.46
-10.09 -9.8900003 2.5599999
-10.09 -9.8900003 2.6600001
-10.09 -9.8900003 2.76
-10.09 -9.8900003 2.8599999
-10.09 -9.8900003 2.96
-10.09 -9.8900003 3.0599999
-10.09 -9.8900003 3.1600001
-10.09 -9.8900003 3.26
-10.09 -9.8900003 3.3599999
-10.09 -9.8900003 3.46
-10.09 -9.8900003 3.5599999
-10.09 -9.8900003 3.6600001
-10.09 -9.8900003 3.76
-10.09 -9.8900003 3.8599999
-10.09 -9.8900003 3.96
-10.09 -9.8900003 4.0599999
-10.09 -9.8900003 4.1599998
-10.09 -9.8900003 4.2600002
-10.09 -9.8900003 4.3600001
-10.09 -9.8900003 4.46
-10.09 -9.8900003 4.5599999
-10.09 -9.8900003 4.6599998
-10.09 -9.8900003 4.7600002
-10.09 -9.8900003 4.8600001
-10.09 -9.8900003 4.96
-10.09 -9.8900003 5.0599999
-10.09 -9.8900003 5.1599998
-10.09 -9.79 -0.94
-10.09 -9.79 -0.83999997
-10.09 -9.79 -0.74000001
-10.09 -9.79 -0.63999999
-10.09 -9.79 -0.54000002
-10.09 -9.79 -0.44
-10.09 -9.79 -0.34
-10.09 -9.79 -0.23999999
-10.09 -9.79 -0.14
-10.09 -9.79 -0.039999999
-10.09 -9.79 0.059999999
-10.09 -9.79 0.16
-10.09 -9.79 0.25999999
-10.09 -9.79 0.36000001
-10.09 -9.79 0.46000001
-10.09 -9.79 0.56
-10.09 -9.79 0.66000003
-10.09 -9.79 0.75999999
-10.09 -9.79 0.86000001
-10.09 -9.79 0.95999998
-10.09 -9.79 1.0599999
-10.09 -9.79 1.16
-10.09 -9.79 1.26
-10.09 -9.79 1.36
-10.09 -9.79 1.46
-10.09 -9.79 1.5599999
-10.09 -9.79 1.66
-10.09 -9.79 1.76
-10.09 -9.79 1.86
-10.09 -9.79 1.96
-10.09 -9.79 2.0599999
-10.09 -9.79 2.1600001
-10.09 -9.79 2.26
-10.09 -9.79 2.3599999
-10.09 -9.79 2.46
-10.09 -9.79 2.5599999
-10.09 -9.79 2.6600001
-10.09 -9.79 2.76
-10.09 -9.79 2.8599999
-10.09 -9.79 2.96
-10.09 -9.79 3.0599999
-10.09 -9.79 3.1600001
-10.09 -9.79 3.26
-10.09 -9.79 3.3599999
-10.09 -9.79 3.46
-10.09 -9.79 3.5599999
-10.09 -9.79 3.6600001
-10.09 -9.79 3.76
-10.09 -9.79 3.8599999
-10.09 -9.79 3.96
-10.09 -9.79 4.0599999
-10.09 -9.79 4.1599998
-10.09 -9.79 4.2600002
-10.09 -9.79 4.3600001
-10.09 -9.79 4.46
-10.09 -9.79 4.5599999
-10.09 -9.79 4.6599998
-10.09 -9.79 4.7600002
-10.09 -9.79 4.8600001
-10.09 -9.79 4.96
-10.09 -9.79 5.0599999
-10.09 -9.79 5.1599998
-10.09 -9.79 5.2600002
-10.09 -9.79 5.3600001
-10.09 -9.79 5.46
-10.09 -9.79 5.5599999
-10.09 -9.79 5.6599998
-10.09 -9.79 5.7600002
-10.09 -9.79 5.8600001
-10.09 -9.79 5.96
-10.09 -9.79 6.0599999
-10.09 -9.79 6.1599998
-10.09 -9.79 6.2600002
-10.09 -9.79 6.3600001
-10.09 -9.79 6.46
-10.09 -9.79 6.5599999
-10.09 -9.79 6.6599998
-10.09 -9.79 6.7600002
-10.09 -9.79 6.8600001
-10.09 -9.79 6.96
-10.09 -9.79 7.0599999
-10.09 -9.79 7.1599998
-10.09 -9.79 7.2600002
-10.09 -9.79 7.3600001
-10.09 -9.79 7.46
-10.09 -9.79 7.5599999
-9.9899998 -10.19 -0.94
-9.9899998 -10.19 -0.83999997
-9.9899998 -10.19 -0.74000001
-9.9899998 -10.19 -0.63999999
-9.9899998 -10.19 -0.54000002
-9.9899998 -10.19 -0.44
-9.9899998 -10.19 -0.34
-9.9899998 -10.19 -0.23999999
-9.9899998 -10.19 -0.14
-9.9899998 -10.19 -0.039999999
-9.9899998 -10.19 0.059999999
-9.9899998 -10.19 0.16
-9.9899998 -10.19 0.25999999
-9.9899998 -10.19 0.36000001
-9.9899998 -10.19 0.46000001
-9.9899998 -10.19 0.56
-9.9899998 -10.19 0.66000003
-9.9899998 -10.19 0.75999999
-9.9899998 -10.19 0.86000001
-9.9899998 -10.19 0.95999998
-9.9899998 -10.19 1.0599999
-9.9899998 -10.19 1.16
-9.9899998 -10.19 1.26
-9.9899998 -10.19 1.36
-9.9899998 -10.19 1.46
-9.9899998 -10.19 1.5599999
-9.9899998 -10.19 1.66
-9.9899998 -10.19 1.76
-9.9899998 -10.19 1.86
-9.9899998 -10.19 1.96
-9.9899998 -10.19 2.0599999
-9.9899998 -10.19 2.1600001
-9.9899998 -10.19 2.26
-9.9899998 -10.19 2.3599999
-9.9899998 -10.19 2.46
-9.9899998 -10.19 2.5599999
-9.9899998 -10.19 2.6600001
-9.9899998 -10.19 2.76
-9.9899998 -10.19 2.8599999
-9.9899998 -10.19 2.96
-9.9899998 -10.19 3.0599999
-9.9899998 -10.19 3.1600001
-9.9899998 -10.19 3.26
-9.9899998 -10.19 3.3599999
-9.9899998 -10.19 3.46
-9.9899998 -10.19 3.5599999
-9.9899998 -10.19 3.6600001
-9.9899998 -10.19 3.76
-9.9899998 -10.19 3.8599999
-9.9899998 -10.19 3.96
-9.9899998 -10.19 4.0599999
-9.9899998 -10.19 4.1599998
-9.9899998 -10.19 4.2600002
-9.9899998 -10.19 4.3600001
-9.9899998 -10.19 4.46
-9.9899998 -10.19 4.5599999
-9.9899998 -10.19 4.6599998
-9.9899998 -10.19 4.7600002
-9.9899998 -10.19 4.8600001
-9.9899998 -10.19 4.96
-9.9899998 -10.19 5.0599999
-9.9899998 -10.19 5.1599998
-9.9899998 -10.19 5.2600002
-9.9899998 -10.19 5.3600001
-9.9899998 -10.19 5.46
-9.9899998 -10.19 5.5599999
-9.9899998 -10.19 5.6599998
-9.9899998 -10.19 5.7600002
-9.9899998 -10.19 5.8600001
-9.9899998 -10.19 5.96
-9.9899998 -10.19 6.0599999
-9.9899998 -10.19 6.1599998
-9.9899998 -10.19 6.2600002
-9.9899998 -10.19 6.3600001
-9.9899998 -10.19 6.46
-9.9899998 -10.19 6.5599999
-9.9899998 -10.19 6.6599998
-9.9899998 -10.19 6.7600002
-9.9899998 -10.19 6.8600001
-9.9899998 -10.19 6.96
-9.9899998 -10.19 7.0599999
-9.9899998 -10.19 7.1599998
-9.9899998 -10.19 7.2600002
-9.9899998 -10.19 7.3600001
-9.9899998 -10.19 7.46
-9.9899998 -10.19 7.5599999
-9.9899998 -10.19 7.6599998
-9.9899998 -10.19 7.7600002
-9.9899998 -10.19 7.8600001
-9.9899998 -10.09 -0.94
-9.9899998 -10.09 -0.83999997
-9.9899998 -10.09 -0.74000001
-9.9899998 -10.09 -0.63999999
-9.9899998 -10.09 -0.54000002
-9.9899998 -10.09 -0.44
-9.9899998 -10.09 -0.34
-9.9899998 -10.09 -0.23999999
-9.9899998 -10.09 -0.14
-9.9899998 -10.09 -0.039999999
-9.9899998 -10.09 0.059999999
-9.9899998 -10.09 0.16
-9.9899998 -10.09 0.25999999
-9.9899998 -10.09 0.36000001
-9.9899998 -10.09 0.46000001
-9.9899998 -10.09 0.56
-9.9899998 -10.09 0.66000003
-9.9899998 -10.09 0.75999999
-9.9899998 -10.09 0.86000001
-9.9899998 -10.09 0.95999998
-9.9899998 -10.09 1.0599999
-9.9899998 -10.09 1.16
-9.9899998 -10.09 1.26
-9.9899998 -10.09 1.36
-9.9899998 -10.09 1.46
-9.9899998 -10.09 1.5599999
-9.9899998 -10.09 1.66
-9.9899998 -10.09 1.76
-9.9899998 -10.09 1.86
-9.9899998 -10.09 1.96
-9.9899998 -10.09 2.0599999
-9.9899998 -10.09 2.1600001
-9.9899998 -10.09 2.26
-9.9899998 -10.09 2.3599999
-9.9899998 -10.09 2.46
-9.9899998 -10.09 2.5599999
-9.9899998 -10.09 2.6600001
-9.9899998 -10.09 2.76
-9.9899998 -10.09 2.8599999
-9.9899998 -10.09 2.96
-9.9899998 -10.09 3.0599999
-9.9899998 -10.09 3.1600001
-9.9899998 -10.09 3.26
-9.9899998 -10.09 3.3599999
-9.9899998 -10.09 3.46
-9.9899998 -10.09 3.5599999
-9.9899998 -10.09 3.6600001
-9.9899998 -10.09 3.76
-9.9899998 -10.09 3.8599999
-9.9899998 -10.09 3.96
-9.9899998 -10.09 4.0599999
-9.9899998 -10.09 4.1599998
-9.9899998 -10.09 4.2600002
-9.9899998 -10.09 4.3600001
-9.9899998 -10.09 4.46
-9.9899998 -10.09 4.5599999
-9.9899998 -10.09 4.6599998
-9.9899998 -10.09 4.7600002
-9.9899998 -10.09 4.8600001
-9.9899998 -10.09 4.96
-9.9899998 -10.09 5.0599999
-9.9899998 -10.09 5.1599998
-9.9899998 -10.09 5.2600002
-9.9899998 -9.9899998 -0.94
-9.9899998 -9.9899998 -0.83999997
-9.9899998 -9.9899998 -0.74000001
-9.9899998 -9.9899998 -0.63999999
-9.9899998 -9.9899998 -0.54000002
-9.9899998 -9.9899998 -0.44
-9.9899998 -9.9899998 -0.34
-9.9899998 -9.9899998 -0.23999999
-9.9899998 -9.9899998 -0.14
-9.9899998 -9.9899998 -0.039999999
-9.9899998 -9.9899998 0.059999999
-9.9899998 -9.9899998 0.16
-9.9899998 -9.9899998 0.25999999
-9.9899998 -9.9899998 0.36000001
-9.9899998 -9.9899998 0.46000001
-9.9899998 -9.9899998 0.56
-9.9899998 -9.9899998 0.66000003
-9.9899998 -9.9899998 0.75999999
-9.9899998 -9.9899998 0.86000001
-9.9899998 -9.9899998 0.95999998
-9.9899998 -9.9899998 1.0599999
-9.9899998 -9.9899998 1.16
-9.9899998 -9.9899998 1.26
-9.9899998 -9.9899998 1.36
-9.9899998 -9.9899998 1.46
-9.9899998 -9.9899998 1.5599999
-9.9899998 -9.9899998 1.66
-9.9899998 -9.9899998 1.76
-9.9899998 -9.9899998 1.86
-9.9899998 -9.9899998 1.96
-9.9899998 -9.9899998 2.0599999
-9.9899998 -9.9899998 2.1600001
-9.9899998 -9.9899998 2.26
-9.9899998 -9.9899998 2.3599999
-9.9899998 -9.9899998 2.46
-9.9899998 -9.9899998 2.5599999
-9.9899998 -9.9899998 2.6600001
-9.9899998 -9.9899998 2.76
-9.9899998 -9.9899998 2.8599999
-9.9899998 -9.9899998 2.96
-9.9899998 -9.9899998 3.0599999
-9.9899998 -9.9899998 3.1600001
-9.9899998 -9.9899998 3.26
-9.9899998 -9.9899998 3.3599999
-9.9899998 -9.9899998 3.46
-9.9899998 -9.9899998 3.5599999
-9.9899998 -9.9899998 3.6600001
-9.9899998 -9.9899998 3.76
-9.9899998 -9.9899998 3.8599999
-9.9899998 -9.9899998 3.96
-9.9899998 -9.9899998 4.0599999
-9.9899998 -9.9899998 4.1599998
-9.9899998 -9.9899998 4.2600002
-9.9899998 -9.9899998 4.3600001
-9.9899998 -9.9899998 4.46
-9.9899998 -9.9899998 4.5599999
-9.9899998 -9.9899998 4.6599998
-9.9899998 -9.9899998 4.7600002
-9.9899998 -9.9899998 4.8600001
-9.9899998 -9.9899998 4.96
-9.9899998 -9.9899998 5.0599999
-9.9899998 -9.9899998 5.1599998
-9.9899998 -9.9899998 5.2600002
-9.9899998 -9.9899998 5.3600001
-9.9899998 -9.9899998 5.46
-9.9899998 -9.8900003 -0.94
-9.9899998 -9.8900003 -0.83999997
-9.9899998 -9.8900003 -0.74000001
-9.9899998 -9.8900003 -0.63999999
-9.9899998 -9.8900003 -0.54000002
-9.9899998 -9.8900003 -0.44
-9.9899998 -9.8900003 -0.34
-9.9899998 -9.8900003 -0.23999999
-9.9899998 -9.8900003 -0.14
-9.9899998 -9.8900003 -0.039999999
-9.9899998 -9.8900003 0.059999999
-9.9899998 -9.8900003 0.16
-9.9899998 -9.8900003 0.25999999
-9.9899998 -9.8900003 0.36000001
-9.9899998 -9.8900003 0.46000001
-9.9899998 -9.8900003 0.56
-9.9899998 -9.8900003 0.66000003
-9.9899998 -9.8900003 0.75999999
-9.9899998 -9.8900003 0.86000001
-9.9899998 -9.8900003 0.95999998
-9.9899998 -9.8900003 1.0599999
-9.9899998 -9.8900003 1.16
-9.9899998 -9.8900003 1.26
-9.9899998 -9.8900003 1.36
-9.9899998 -9.8900003 1.46
-9.9899998 -9.8900003 1.5599999
-9.9899998 -9.8900003 1.66
-9.9899998 -9.8900003 1.76
-9.9899998 -9.8900003 1.86
-9.9899998 -9.8900003 1.96
-9.9899998 -9.8900003 2.0599999
-9.9899998 -9.8900003 2.1600001
-9.9899998 -9.8900003 2.26
-9.9899998 -9.8900003 2.3599999
-9.9899998 -9.8900003 2.46
-9.9899998 -9.8900003 2.5599999
-9.9899998 -9.8900003 2.6600001
-9.9899998 -9.8900003 2.76
-9.9899998 -9.8900003 2.8599999
-9.9899998 -9.8900003 2.96
-9.9899998 -9.8900003 3.0599999
-9.9899998 -9.8900003 3.1600001
-9.9899998 -9.8900003 3.26
-9.9899998 -9.8900003 3.3599999
-9.9899998 -9.8900003 3.46
-9.9899998 -9.8900003 3.5599999
-9.9899998 -9.8900003 3.6600001
-9.9899998 -9.8900003 3.76
-9.9899998 -9.8900003 3.8599999
-9.9899998 -9.8900003 3.96
-9.9899998 -9.8900003 4.0599999
-9.9899998 -9.8900003 4.1599998
-9.9899998 -9.8900003 4.2600002
-9.9899998 -9.8900003 4.3600001
-9.9899998 -9.8900003 4.46
-9.9899998 -9.8900003 4.5599999
-9.9899998 -9.8900003 4.6599998
-9.9899998 -9.8900003 4.7600002
-9.9899998 -9.8900003 4.8600001
-9.9899998 -9.8900003 4.96
-9.9899998 -9.8900003 5.0599999
-9.9899998 -9.8900003 5.1599998
-9.9899998 -9.8900003 5.2600002
-9.9899998 -9.8900003 5.3600001
-9.9899998 -9.8900003 5.46
-9.9899998 -9.8900003 5.5599999
-9.9899998 -9.8900003 5.6599998
-9.9899998 -9.8900003 5.7600002
-9.9899998 -9.8900003 5.8600001
-9.9899998 -9.8900003 5.96
-9.9899998 -9.8900003 6.0599999
-9.9899998 -9.8900003 6.1599998
-9.9899998 -9.8900003 6.2600002
-9.9899998 -9.8900003 6.3600001
-9.9899998 -9.8900003 6.46
-9.9899998 -9.8900003 6.5599999
-9.9899998 -9.8900003 6.6599998
-9.9899998 -9.8900003 6.7600002
-9.9899998 -9.8900003 6.8600001
-9.9899998 -9.8900003 6.96
-9.9899998 -9.8900003 7.0599999
-9.9899998 -9.8900003 7.1599998
-9.9899998 -9.8900003 7.2600002
-9.9899998 -9.8900003 7.3600001
-9.9899998 -9.79 -0.94
-9.9899998 -9.79 -0.83999997
-9.9899998 -9.79 -0.74000001
-9.9899998 -9.79 -0.63999999
-9.9899998 -9.79 -0.54000002
-9.9899998 -9.79 -0.44
-9.9899998 -9.79 -0.34
-9.9899998 -9.79 -0.23999999
-9.9899998 -9.79 -0.14
-9.9899998 -9.79 -0.039999999
-9.9899998 -9.79 0.059999999
-9.9899998 -9.79 0.16
-9.9899998 -9.79 0.25999999
-9.9899998 -9.79 0.36000001
-9.9899998 -9.79 0.46000001
-9.9899998 -9.79 0.56
-9.9899998 -9.79 0.66000003
-9.9899998 -9.79 0.75999999
-9.9899998 -9.79 0.86000001
-9.9899998 -9.79 0.95999998
-9.9899998 -9.79 1.0599999
-9.9899998 -9.79 1.16
-9.9899998 -9.79 1.26
-9.9899998 -9.79 1.36
-9.9899998 -9.79 1.46
-9.9899998 -9.79 1.5599999
-9.9899998 -9.79 1.66
-9.9899998 -9.79 1.76
-9.9899998 -9.79 1.86
-9.9899998 -9.79 1.96
-9.9899998 -9.79 2.0599999
-9.9899998 -9.79 2.1600001
-9.9899998 -9.79 2.26
-9.9899998 -9.79 2.3599999
-9.9899998 -9.79 2.46
-9.9899998 -9.79 2.5599999
-9.9899998 -9.79 2.6600001
-9.9899998 -9.79 2.76
-9.9899998 -9.79 2.8599999
-9.9899998 -9.79 2.96
-9.9899998 -9.79 3.0599999
-9.9899998 -9.79 3.1600001
-9.9899998 -9.79 3.26
-9.9899998 -9.79 3.3599999
-9.9899998 -9.79 3.46
-9.9899998 -9.79 3.5599999
-9.9899998 -9.79 3.6600001
-9.9899998 -9.79 3.76
-9.9899998 -9.79 3.8599999
-9.9899998 -9.79 3.96
-9.9899998 -9.79 4.0599999
-9.9899998 -9.79 4.1599998
-9.9899998 -9.79 4.2600002
-9.9899998 -9.79 4.3600001
-9.9899998 -9.79 4.46
-9.9899998 -9.79 4.5599999
-9.9899998 -9.79 4.6599998
-9.9899998 -9.79 4.7600002
-9.9899998 -9.79 4.8600001
-9.9899998 -9.79 4.96
-9.9899998 -9.79 5.0599999
-9.9899998 -9.6899996 -0.94
-9.9899998 -9.6899996 -0.83999997
-9.9899998 -9.6899996 -0.74000001
-9.9899998 -9.6899996 -0.63999999
-9.9899998 -9.6899996 -0.54000002
-9.9899998 -9.6899996 -0.44
-9.9899998 -9.6899996 -0.34
-9.9899998 -9.6899996 -0.23999999
-9.9899998 -9.6899996 -0.14
-9.9899998 -9.6899996 -0.039999999
-9.9899998 -9.6899996 0.059999999
-9.9899998 -9.6899996 0.16
-9.9899998 -9.6899996 0.25999999
-9.9899998 -9.6899996 0.36000001
-9.9899998 -9.6899996 0.46000001
-9.9899998 -9.6899996 0.56
-9.9899998 -9.6899996 0.66000003
-9.9899998 -9.6899996 0.75999999
-9.9899998 -9.6899996 0.86000001
-9.9899998 -9.6899996 0.95999998
-9.9899998 -9.6899996 1.0599999
-9.9899998 -9.6899996 1.16
-9.9899998 -9.6899996 1.26
-9.9899998 -9.6899996 1.36
-9.9899998 -9.6899996 1.46
-9.9899998 -9.6899996 1.5599999
-9.9899998 -9.6899996 1.66
-9.9899998 -9.6899996 1.76
-9.9899998 -9.6899996 1.86
-9.9899998 -9.6899996 1.96
-9.9899998 -9.6899996 2.0599999
-9.9899998 -9.6899996 2.1600001
-9.9899998 -9.6899996 2.26
-9.9899998 -9.6899996 2.3599999
-9.9899998 -9.6899996 2.46
-9.9899998 -9.6899996 2.5599999
-9.9899998 -9.6899996 2.6600001
-9.9899998 -9.6899996 2.76
-9.9899998 -9.6899996 2.8599999
-9.9899998 -9.6899996 2.96
-9.9899998 -9.6899996 3.0599999
-9.9899998 -9.6899996 3.1600001
-9.9899998 -9.6899996 3.26
-9.9899998 -9.6899996 3.3599999
-9.9899998 -9.6899996 3.46
-9.9899998 -9.6899996 3.5599999
-9.9899998 -9.6899996 3.6600001
-9.9899998 -9.6899996 3.76
-9.9899998 -9.6899996 3.8599999
-9.9899998 -9.6899996 3.96
-9.9899998 -9.6899996 4.0599999
-9.9899998 -9.6899996 4.1599998
-9.9899998 -9.6899996 4.2600002
-9.9899998 -9.6899996 4.3600001
-9.9899998 -9.6899996 4.46
-9.9899998 -9.6899996 4.5599999
-9.9899998 -9.6899996 4.6599998
-9.9899998 -9.6899996 4.7600002
-9.9899998 -9.6899996 4.8600001
-9.9899998 -9.6899996 4.96
-9.9899998 -9.6899996 5.0599999
-9.9899998 -9.6899996 5.1599998
-9.9899998 -9.6899996 5.2600002
-9.9899998 -9.6899996 5.3600001
-9.9899998 -9.6899996 5.46
-9.9899998 -9.6899996 5.5599999
-9.9899998 -9.6899996 5.6599998
-9.9899998 -9.6899996 5.7600002
-9.9899998 -9.6899996 5.8600001
-9.9899998 -9.6899996 5.96
-9.9899998 -9.6899996 6.0599999
-9.9899998 -9.6899996 6.1599998
-9.9899998 -9.6899996 6.2600002
-9.9899998 -9.6899996 6.3600001
-9.9899998 -9.6899996 6.46
-9.9899998 -9.6899996 6.5599999
-9.9899998 -9.6899996 6.6599998
-9.9899998 -9.6899996 6.7600002
-9.9899998 -9.6899996 6.8600001
-9.9899998 -9.6899996 6.96
-9.8900003 -10.29 -0.94
-9.8900003 -10.29 -0.83999997
-9.8900003 -10.29 -0.74000001
-9.8900003 -10.29 -0.63999999
-9.8900003 -10.29 -0.54000002
-9.8900003 -10.29 -0.44
-9.8900003 -10.29 -0.34
-9.8900003 -10.29 -0.23999999
-9.8900003 -10.29 -0.14
-9.8900003 -10.29 -0.039999999
-9.8900003 -10.29 0.059999999
-9.8900003 -10.29 0.16
-9.8900003 -10.29 0.25999999
-9.8900003 -10.29 0.36000001
-9.8900003 -10.29 0.46000001
-9.8900003 -10.29 0.56
-9.8900003 -10.29 0.66000003
-9.8900003 -10.29 0.75999999
-9.8900003 -10.29 0.86000001
-9.8900003 -10.29 0.95999998
-9.8900003 -10.29 1.0599999
-9.8900003 -10.29 1.16
-9.8900003 -10.29 1.26
-9.8900003 -10.29 1.36
-9.8900003 -10.29 1.46
-9.8900003 -10.29 1.5599999
-9.8900003 -10.29 1.66
-9.8900003 -10.29 1.76
-9.8900003 -10.29 1.86
-9.8900003 -10.29 1.96
-9.8900003 -10.29 2.0599999
-9.8900003 -10.29 2.1600001
-9.8900003 -10.29 2.26
-9.8900003 -10.29 2.3599999
-9.8900003 -10.29 2.46
-9.8900003 -10.29 2.5599999
-9.8900003 -10.29 2.6600001
-9.8900003 -10.29 2.76
-9.8900003 -10.29 2.8599999
-9.8900003 -10.29 2.96
-9.8900003 -10.29 3.0599999
-9.8900003 -10.29 3.1600001
-9.8900003 -10.29 3.26
-9.8900003 -10.29 3.3599999
-9.8900003 -10.29 3.46
-9.8900003 -10.29 3.5599999
-9.8900003 -10.29 3.6600001
-9.8900003 -10.29 3.76
-9.8900003 -10.29 3.8599999
-9.8900003 -10.29 3.96
-9.8900003 -10.29 4.0599999
-9.8900003 -10.29 4.1599998
-9.8900003 -10.29 4.2600002
-9.8900003 -10.29 4.3600001
-9.8900003 -10.29 4.46
-9.8900003 -10.29 4.5599999
-9.8900003 -10.29 4.6599998
-9.8900003 -10.29 4.7600002
-9.8900003 -10.29 4.8600001
-9.8900003 -10.29 4.96
-9.8900003 -10.29 5.0599999
-9.8900003 -10.29 5.1599998
-9.8900003 -10.29 5.2600002
-9.8900003 -10.29 5.3600001
-9.8900003 -10.29 5.46
-9.8900003 -10.29 5.5599999
-9.8900003 -10.29 5.6599998
-9.8900003 -10.29 5.7600002
-9.8900003 -10.19 -0.94
-9.8900003 -10.19 -0.83999997
-9.8900003 -10.19 -0.74000001
-9.8900003 -10.19 -0.63999999
-9.8900003 -10.19 -0.54000002
-9.8900003 -10.19 -0.44
-9.8900003 -10.19 -0.34
-9.8900003 -10.19 -0.23999999
-9.8900003 -10.19 -0.14
-9.8900003 -10.19 -0.039999999
-9.8900003 -10.19 0.059999999
-9.8900003 -10.19 0.16
-9.8900003 -10.19 0.25999999
-9.8900003 -10.19 0.36000001
-9.8900003 -10.19 0.46000001
-9.8900003 -10.19 0.56
-9.8900003 -10.19 0.66000003
-9.8900003 -10.19 0.75999999
-9.8900003 -10.19 0.86000001
-9.8900003 -10.19 0.95999998
-9.8900003 -10.19 1.0599999
-9.8900003 -10.19 1.16
-9.8900003 -10.19 1.26
-9.8900003 -10.19 1.36
-9.8900003 -10.19 1.46
-9.8900003 -10.19 1.5599999
-9.8900003 -10.19 1.66
-9.8900003 -10.19 1.76
-9.8900003 -10.19 1.86
-9.8900003 -10.19 1.96
-9.8900003 -10.19 2.0599999
-9.8900003 -10.19 2.1600001
-9.8900003 -10.19 2.26
-9.8900003 -10.19 2.3599999
-9.8900003 -10.19 2.46
-9.8900003 -10.19 2.5599999
-9.8900003 -10.19 2.6600001
-9.8900003 -10.19 2.76
-9.8900003 -10.19 2.8599999
-9.8900003 -10.19 2.96
-9.8900003 -10.19 3.0599999
-9.8900003 -10.19 3.1600001
-9.8900003 -10.19 3.26
-9.8900003 -10.19 3.3599999
-9.8900003 -10.19 3.46
-9.8900003 -10.19 3.5599999
-9.8900003 -10.19 3.6600001
-9.8900003 -10.19 3.76
-9.8900003 -10.19 3.8599999
-9.8900003 -10.19 3.96
-9.8900003 -10.19 4.0599999
-9.8900003 -10.19 4.1599998
-9.8900003 -10.19 4.2600002
-9.8900003 -10.19 4.3600001
-9.8900003 -10.19 4.46
-9.8900003 -10.19 4.5599999
-9.8900003 -10.19 4.6599998
-9.8900003 -10.19 4.7600002
-9.8900003 -10.19 4.8600001
-9.8900003 -10.19 4.96
-9.8900003 -10.19 5.0599999
-9.8900003 -10.19 5.1599998
-9.8900003 -10.19 5.2600002
-9.8900003 -10.19 5.3600001
-9.8900003 -10.19 5.46
-9.8900003 -10.19 5.5599999
-9.8900003 -10.19 5.6599998
-9.8900003 -10.19 5.7600002
-9.8900003 -10.19 5.8600001
-9.8900003 -10.19 5.96
-9.8900003 -10.19 6.0599999
-9.8900003 -10.19 6.1599998
-9.8900003 -10.19 6.2600002
-9.8900003 -10.19 6.3600001
-9.8900003 -10.19 6.46
-9.8900003 -10.19 6.5599999
-9.8900003 -10.19 6.6599998
-9.8900003 -10.19 6.7600002
-9.8900003 -10.19 6.8600001
-9.8900003 -10.19 6.96
-9.8900003 -10.19 7.0599999
-9.8900003 -10.19 7.1599998
-9.8900003 -10.19 7.2600002
-9.8900003 -10.19 7.3600001
-9.8900003 -10.19 7.46
-9.8900003 -10.19 7.5599999
-9.8900003 -10.19 7.6599998
-9.8900003 -10.09 -0.94
-9.8900003 -10.09 -0.83999997
-9.8900003 -10.09 -0.74000001
-9.8900003 -10.09 -0.63999999
-9.8900003 -10.09 -0.54000002
-9.8900003 -10.09 -0.44
-9.8900003 -10.09 -0.34
-9.8900003 -10.09 -0.23999999
-9.8900003 -10.09 -0.14
-9.8900003 -10.09 -0.039999999
-9.8900003 -10.09 0.059999999
-9.8900003 -10.09 0.16
-9.8900003 -10.09 0.25999999
-9.8900003 -10.09 0.36000001
-9.8900003 -10.09 0.46000001
-9.8900003 -10.09 0.56
-9.8900003 -10.09 0.66000003
-9.8900003 -10.09 0.75999999
-9.8900003 -10.09 0.86000001
-9.8900003 -10.09 0.95999998
-9.8900003 -10.09 1.0599999
-9.8900003 -10.09 1.16
-9.8900003 -10.09 1.26
-9.8900003 -10.09 1.36
-9.8900003 -10.09 1.46
-9.8900003 -10.09 1.5599999
-9.8900003 -10.09 1.66
-9.8900003 -10.09 1.76
-9.8900003 -10.09 1.86
-9.8900003 -10.09 1.96
-9.8900003 -10.09 2.0599999
-9.8900003 -10.09 2.1600001
-9.8900003 -10.09 2.26
-9.8900003 -10.09 2.3599999
-9.8900003 -10.09 2.46
-9.8900003 -10.09 2.5599999
-9.8900003 -10.09 2.6600001
-9.8900003 -10.09 2.76
-9.8900003 -10.09 2.8599999
-9.8900003 -10.09 2.96
-9.8900003 -10.09 3.0599999
-9.8900003 -10.09 3.1600001
-9.8900003 -10.09 3.26
-9.8900003 -10.09 3.3599999
-9.8900003 -10.09 3.46
-9.8900003 -10.09 3.5599999
-9.8900003 -10.09 3.6600001
-9.8900003 -10.09 3.76
-9.8900003 -10.09 3.8599999
-9.8900003 -10.09 3.96
-9.8900003 -10.09 4.0599999
-9.8900003 -10.09 4.1599998
-9.8900003 -10.09 4.2600002
-9.8900003 -10.09 4.3600001
-9.8900003 -10.09 4.46
-9.8900003 -10.09 4.5599999
-9.8900003 -10.09 4.6599998
-9.8900003 -10.09 4.7600002
-9.8900003 -10.09 4.8600001
-9.8900003 -10.09 4.96
-9.8900003 -10.09 5.0599999
-9.8900003 -10.09 5.1599998
-9.8900003 -10.09 5.2600002
-9.8900003 -10.09 5.3600001
-9.8900003 -10.09 5.46
-9.8900003 -10.09 5.5599999
-9.8900003 -10.09 5.6599998
-9.8900003 -10.09 5.7600002
-9.8900003 -10.09 5.8600001
-9.8900003 -10.09 5.96
-9.8900003 -10.09 6.0599999
-9.8900003 -10.09 6.1599998
-9.8900003 -10.09 6.2600002
-9.8900003 -10.09 6.3600001
-9.8900003 -10.09 6.46
-9.8900003 -10.09 6.5599999
-9.8900003 -10.09 6.6599998
-9.8900003 -10.09 6.7600002
-9.8900003 -10.09 6.8600001
-9.8900003 -10.09 6.96
-9.8900003 -10.09 7.0599999
-9.8900003 -10.09 7.1599998
-9.8900003 -10.09 7.2600002
-9.8900003 -10.09 7.3600001
-9.8900003 -10.09 7.46
-9.8900003 -10.09 7.5599999
-9.8900003 -10.09 7.6599998
-9.8900003 -9.9899998 -0.94
-9.8900003 -9.9899998 -0.83999997
-9.8900003 -9.9899998 -0.74000001
-9.8900003 -9.9899998 -0.63999999
-9.8900003 -9.9899998 -0.54000002
-9.8900003 -9.9899998 -0.44
-9.8900003 -9.9899998 -0.34
-9.8900003 -9.9899998 -0.23999999
-9.8900003 -9.9899998 -0.14
-9.8900003 -9.9899998 -0.039999999
-9.8900003 -9.9899998 0.059999999
-9.8900003 -9.9899998 0.16
-9.8900003 -9.9899998 0.25999999
-9.8900003 -9.9899998 0.36000001
-9.8900003 -9.9899998 0.46000001
-9.8900003 -9.9899998 0.56
-9.8900003 -9.9899998 0.66000003
-9.8900003 -9.9899998 0.75999999
-9.8900003 -9.9899998 0.86000001
-9.8900003 -9.9899998 0.95999998
-9.8900003 -9.9899998 1.0599999
-9.8900003 -9.9899998 1.16
-9.8900003 -9.9899998 1.26
-9.8900003 -9.9899998 1.36
-9.8900003 -9.9899998 1.46
-9.8900003 -9.9899998 1.5599999
-9.8900003 -9.9899998 1.66
-9.8900003 -9.9899998 1.76
-9.8900003 -9.9899998 1.86
-9.8900003 -9.9899998 1.96
-9.8900003 -9.9899998 2.0599999
-9.8900003 -9.9899998 2.1600001
-9.8900003 -9.9899998 2.26
-9.8900003 -9.9899998 2.3599999
-9.8900003 -9.9899998 2.46
-9.8900003 -9.9899998 2.5599999
-9.8900003 -9.9899998 2.6600001
-9.8900003 -9.9899998 2.76
-9.8900003 -9.9899998 2.8599999
-9.8900003 -9.9899998 2.96
-9.8900003 -9.9899998 3.0599999
-9.8900003 -9.9899998 3.1600001
-9.8900003 -9.9899998 3.26
-9.8900003 -9.9899998 3.3599999
-9.8900003 -9.9899998 3.46
-9.8900003 -9.9899998 3.5599999
-9.8900003 -9.9899998 3.6600001
-9.8900003 -9.9899998 3.76
-9.8900003 -9.9899998 3.8599999
-9.8900003 -9.9899998 3.96
-9.8900003 -9.9899998 4.0599999
-9.8900003 -9.9899998 4.1599998
-9.8900003 -9.9899998 4.2600002
-9.8900003 -9.9899998 4.3600001
-9.8900003 -9.9899998 4.46
-9.8900003 -9.9899998 4.5599999
-9.8900003 -9.9899998 4.6599998
-9.8900003 -9.9899998 4.7600002
-9.8900003 -9.9899998 4.8600001
-9.8900003 -9.9899998 4.96
-9.8900003 -9.9899998 5.0599999
-9.8900003 -9.9899998 5.1599998
-9.8900003 -9.9899998 5.2600002
-9.8900003 -9.9899998 5.3600001
-9.8900003 -9.9899998 5.46
-9.8900003 -9.9899998 5.5599999
-9.8900003 -9.9899998 5.6599998
-9.8900003 -9.9899998 5.7600002
-9.8900003 -9.9899998 5.8600001
-9.8900003 -9.9899998 5.96
-9.8900003 -9.9899998 6.0599999
-9.8900003 -9.9899998 6.1599998
-9.8900003 -9.9899998 6.2600002
-9.8900003 -9.9899998 6.3600001
-9.8900003 -9.9899998 6.46
-9.8900003 -9.9899998 6.5599999
-9.8900003 -9.9899998 6.6599998
-9.8900003 -9.9899998 6.7600002
