# .PCD v0.7 - Point Cloud Data file format
VERSION 0.7
FIELDS x y z intensity
SIZE 4 4 4 4
TYPE F F F F
COUNT 1 1 1 1
WIDTH 1913
HEIGHT 1
VIEWPOINT 0 0 0 1 0 0 0
POINTS 1913
DATA ascii
2.9100001 2.1099999 4.2600002 0
2.9100001 2.1099999 4.3600001 0
2.9100001 2.1099999 4.46 0
2.9100001 2.1099999 4.5599999 0
2.9100001 2.1099999 4.6599998 0
2.9100001 2.1099999 4.7600002 0
2.9100001 2.1099999 4.8600001 0
2.9100001 2.1099999 4.96 0
2.9100001 2.1099999 5.0599999 0
2.9100001 2.1099999 5.1599998 0
2.9100001 2.1099999 5.2600002 0
2.9100001 2.1099999 5.3600001 0
2.9100001 2.1099999 5.46 0
2.9100001 2.1099999 5.5599999 0
2.9100001 2.1099999 5.6599998 0
2.9100001 2.1099999 5.7600002 0
2.9100001 2.1099999 5.8600001 0
2.9100001 2.1099999 5.96 0
2.9100001 2.1099999 6.0599999 0
2.9100001 2.1099999 6.1599998 0
2.9100001 2.1099999 6.2600002 0
2.9100001 2.1099999 6.3600001 0
2.9100001 2.1099999 6.46 0
2.9100001 2.1099999 6.5599999 0
2.9100001 2.1099999 6.6599998 0
2.9100001 2.1099999 6.7600002 0
2.9100001 2.1099999 6.8600001 0
2.9100001 2.1099999 6.96 0
2.9100001 2.1099999 7.0599999 0
2.9100001 2.1099999 7.1599998 0
2.9100001 2.1099999 7.2600002 0
2.9100001 2.1099999 7.3600001 0
2.9100001 2.1099999 7.46 0
2.9100001 2.1099999 7.5599999 0
2.9100001 2.1099999 7.6599998 0
2.9100001 2.1099999 7.7600002 0
2.9100001 2.1099999 7.8600001 0
2.9100001 2.1099999 7.96 0
2.9100001 2.1099999 8.0600004 0
2.9100001 2.1099999 8.1599998 0
2.9100001 2.1099999 8.2600002 0
2.9100001 2.1099999 8.3599997 0
2.9100001 2.1099999 8.46 0
2.9100001 2.1099999 8.5600004 0
2.9100001 2.1099999 8.6599998 0
2.9100001 2.1099999 8.7600002 0
2.9100001 2.1099999 8.8599997 0
2.9100001 2.1099999 8.96 0
2.9100001 2.1099999 9.0600004 0
2.9100001 2.1099999 9.1599998 0
2.9100001 2.1099999 9.2600002 0
2.9100001 2.1099999 9.3599997 0
2.9100001 2.1099999 9.46 0
2.9100001 2.1099999 9.5600004 0
2.9100001 2.1099999 9.6599998 0
2.9100001 2.1099999 9.7600002 0
2.9100001 2.1099999 9.8599997 0
2.9100001 2.1099999 9.96 0
2.9100001 2.21 -0.94 0
2.9100001 2.21 -0.83999997 0
2.9100001 2.21 -0.74000001 0
2.9100001 2.21 -0.63999999 0
2.9100001 2.21 -0.54000002 0
2.9100001 2.21 -0.44 0
2.9100001 2.21 -0.34 0
2.9100001 2.21 -0.23999999 0
2.9100001 2.21 -0.14 0
2.9100001 2.21 -0.039999999 0
2.9100001 2.21 0.059999999 0
2.9100001 2.21 0.16 0
2.9100001 2.21 0.25999999 0
2.9100001 2.21 0.36000001 0
2.9100001 2.21 0.46000001 0
2.9100001 2.21 0.56 0
2.9100001 2.21 0.66000003 0
2.9100001 2.21 0.75999999 0
2.9100001 2.21 0.86000001 0
2.9100001 2.21 0.95999998 0
2.9100001 2.21 1.0599999 0
2.9100001 2.21 1.16 0
2.9100001 2.21 1.26 0
2.9100001 2.21 1.36 0
2.9100001 2.21 1.46 0
2.9100001 2.21 1.5599999 0
2.9100001 2.21 1.66 0
2.9100001 2.21 1.76 0
2.9100001 2.21 1.86 0
2.9100001 2.21 1.96 0
2.9100001 2.21 2.0599999 0
2.9100001 2.21 2.1600001 0
2.9100001 2.21 2.26 0
2.9100001 2.21 2.3599999 0
2.9100001 2.21 2.46 0
2.9100001 2.21 2.5599999 0
2.9100001 2.21 2.6600001 0
2.9100001 2.21 2.76 0
2.9100001 2.21 2.8599999 0
2.9100001 2.21 2.96 0
2.9100001 2.21 3.0599999 0
2.9100001 2.21 3.1600001 0
2.9100001 2.21 3.26 0
2.9100001 2.21 3.3599999 0
2.9100001 2.21 3.46 0
2.9100001 2.21 3.5599999 0
2.9100001 2.21 3.6600001 0
2.9100001 2.21 3.76 0
2.9100001 2.21 3.8599999 0
2.9100001 2.21 3.96 0
2.9100001 2.21 4.0599999 0
2.9100001 2.21 4.1599998 0
2.9100001 2.21 4.2600002 0
2.9100001 2.21 4.3600001 0
2.9100001 2.21 4.46 0
2.9100001 2.21 4.5599999 0
2.9100001 2.21 4.6599998 0
2.9100001 2.21 4.7600002 0
2.9100001 2.21 4.8600001 0
2.9100001 2.21 4.96 0
2.9100001 2.21 5.0599999 0
2.9100001 2.21 5.1599998 0
2.9100001 2.21 5.2600002 0
2.9100001 2.21 5.3600001 0
2.9100001 2.21 5.46 0
2.9100001 2.21 5.5599999 0
2.9100001 2.21 5.6599998 0
2.9100001 2.21 5.7600002 0
2.9100001 2.21 5.8600001 0
2.9100001 2.21 5.96 0
2.9100001 2.21 6.0599999 0
2.9100001 2.21 6.1599998 0
2.9100001 2.21 6.2600002 0
2.9100001 2.21 6.3600001 0
2.9100001 2.21 6.46 0
2.9100001 2.21 6.5599999 0
2.9100001 2.21 6.6599998 0
2.9100001 2.21 6.7600002 0
2.9100001 2.21 6.8600001 0
2.9100001 2.21 6.96 0
2.9100001 2.21 7.0599999 0
2.9100001 2.21 7.1599998 0
2.9100001 2.21 7.2600002 0
2.9100001 2.21 7.3600001 0
2.9100001 2.21 7.46 0
2.9100001 2.21 7.5599999 0
2.9100001 2.21 7.6599998 0
2.9100001 2.21 7.7600002 0
2.9100001 2.21 7.8600001 0
2.9100001 2.21 7.96 0
2.9100001 2.21 8.0600004 0
2.9100001 2.21 8.1599998 0
2.9100001 2.21 8.2600002 0
2.9100001 2.21 8.3599997 0
2.9100001 2.21 8.46 0
2.9100001 2.21 8.5600004 0
2.9100001 2.21 8.6599998 0
2.9100001 2.21 8.7600002 0
2.9100001 2.21 8.8599997 0
2.9100001 2.21 8.96 0
2.9100001 2.21 9.0600004 0
2.9100001 2.21 9.1599998 0
2.9100001 2.21 9.2600002 0
2.9100001 2.21 9.3599997 0
2.9100001 2.21 9.46 0
2.9100001 2.21 9.5600004 0
2.9100001 2.21 9.6599998 0
2.9100001 2.21 9.7600002 0
2.9100001 2.21 9.8599997 0
2.9100001 2.21 9.96 0
2.9100001 2.3099999 -0.94 0
2.9100001 2.3099999 -0.83999997 0
2.9100001 2.3099999 -0.74000001 0
2.9100001 2.3099999 -0.63999999 0
2.9100001 2.3099999 -0.54000002 0
2.9100001 2.3099999 -0.44 0
2.9100001 2.3099999 -0.34 0
2.9100001 2.3099999 -0.23999999 0
2.9100001 2.3099999 -0.14 0
2.9100001 2.3099999 -0.039999999 0
2.9100001 2.3099999 0.059999999 0
2.9100001 2.3099999 0.16 0
2.9100001 2.3099999 0.25999999 0
2.9100001 2.3099999 0.36000001 0
2.9100001 2.3099999 0.46000001 0
2.9100001 2.3099999 0.56 0
2.9100001 2.3099999 0.66000003 0
2.9100001 2.3099999 0.75999999 0
2.9100001 2.3099999 0.86000001 0
2.9100001 2.3099999 0.95999998 0
2.9100001 2.3099999 1.0599999 0
2.9100001 2.3099999 1.16 0
2.9100001 2.3099999 1.26 0
2.9100001 2.3099999 1.36 0
2.9100001 2.3099999 1.46 0
2.9100001 2.3099999 1.5599999 0
2.9100001 2.3099999 1.66 0
2.9100001 2.3099999 1.76 0
2.9100001 2.3099999 1.86 0
2.9100001 2.3099999 1.96 0
2.9100001 2.3099999 2.0599999 0
2.9100001 2.3099999 2.1600001 0
2.9100001 2.3099999 2.26 0
2.9100001 2.3099999 2.3599999 0
2.9100001 2.3099999 2.46 0
2.9100001 2.3099999 2.5599999 0
2.9100001 2.3099999 2.6600001 0
2.9100001 2.3099999 2.76 0
2.9100001 2.3099999 2.8599999 0
2.9100001 2.3099999 2.96 0
2.9100001 2.3099999 3.0599999 0
2.9100001 2.3099999 3.1600001 0
2.9100001 2.3099999 3.26 0
2.9100001 2.3099999 3.3599999 0
2.9100001 2.3099999 3.46 0
2.9100001 2.3099999 3.5599999 0
2.9100001 2.3099999 3.6600001 0
2.9100001 2.3099999 3.76 0
2.9100001 2.3099999 3.8599999 0
2.9100001 2.3099999 3.96 0
2.9100001 2.3099999 4.0599999 0
2.9100001 2.3099999 4.1599998 0
2.9100001 2.3099999 4.2600002 0
2.9100001 2.3099999 4.3600001 0
2.9100001 2.3099999 4.46 0
2.9100001 2.3099999 4.5599999 0
2.9100001 2.3099999 4.6599998 0
2.9100001 2.3099999 4.7600002 0
2.9100001 2.3099999 4.8600001 0
2.9100001 2.3099999 4.96 0
2.9100001 2.3099999 5.0599999 0
2.9100001 2.3099999 5.1599998 0
2.9100001 2.3099999 5.2600002 0
2.9100001 2.3099999 5.3600001 0
2.9100001 2.3099999 5.46 0
2.9100001 2.3099999 5.5599999 0
2.9100001 2.3099999 5.6599998 0
2.9100001 2.3099999 5.7600002 0
2.9100001 2.3099999 5.8600001 0
2.9100001 2.3099999 5.96 0
2.9100001 2.3099999 6.0599999 0
2.9100001 2.3099999 6.1599998 0
2.9100001 2.3099999 6.2600002 0
2.9100001 2.3099999 6.3600001 0
2.9100001 2.3099999 6.46 0
2.9100001 2.3099999 6.5599999 0
2.9100001 2.3099999 6.6599998 0
2.9100001 2.3099999 6.7600002 0
2.9100001 2.3099999 6.8600001 0
2.9100001 2.3099999 6.96 0
2.9100001 2.3099999 7.0599999 0
2.9100001 2.3099999 7.1599998 0
2.9100001 2.3099999 7.2600002 0
2.9100001 2.3099999 7.3600001 0
2.9100001 2.3099999 7.46 0
2.9100001 2.3099999 7.5599999 0
2.9100001 2.3099999 7.6599998 0
2.9100001 2.3099999 7.7600002 0
2.9100001 2.3099999 7.8600001 0
2.9100001 2.3099999 7.96 0
2.9100001 2.3099999 8.0600004 0
2.9100001 2.3099999 8.1599998 0
2.9100001 2.3099999 8.2600002 0
2.9100001 2.3099999 8.3599997 0
2.9100001 2.3099999 8.46 0
2.9100001 2.3099999 8.5600004 0
2.9100001 2.3099999 8.6599998 0
2.9100001 2.3099999 8.7600002 0
2.9100001 2.3099999 8.8599997 0
2.9100001 2.3099999 8.96 0
2.9100001 2.3099999 9.0600004 0
2.9100001 2.3099999 9.1599998 0
2.9100001 2.3099999 9.2600002 0
2.9100001 2.3099999 9.3599997 0
2.9100001 2.3099999 9.46 0
2.9100001 2.3099999 9.5600004 0
2.9100001 2.3099999 9.6599998 0
2.9100001 2.3099999 9.7600002 0
2.9100001 2.3099999 9.8599997 0
2.9100001 2.3099999 9.96 0
2.9100001 2.4100001 -0.94 0
2.9100001 2.4100001 -0.83999997 0
2.9100001 2.4100001 -0.74000001 0
2.9100001 2.4100001 -0.63999999 0
2.9100001 2.4100001 -0.54000002 0
2.9100001 2.4100001 -0.44 0
2.9100001 2.4100001 -0.34 0
2.9100001 2.4100001 -0.23999999 0
2.9100001 2.4100001 -0.14 0
2.9100001 2.4100001 -0.039999999 0
2.9100001 2.4100001 0.059999999 0
2.9100001 2.4100001 0.16 0
2.9100001 2.4100001 0.25999999 0
2.9100001 2.4100001 0.36000001 0
2.9100001 2.4100001 0.46000001 0
2.9100001 2.4100001 0.56 0
2.9100001 2.4100001 0.66000003 0
2.9100001 2.4100001 0.75999999 0
2.9100001 2.4100001 0.86000001 0
2.9100001 2.4100001 0.95999998 0
2.9100001 2.4100001 1.0599999 0
2.9100001 2.4100001 1.16 0
2.9100001 2.4100001 1.26 0
2.9100001 2.4100001 1.36 0
2.9100001 2.4100001 1.46 0
2.9100001 2.4100001 1.5599999 0
2.9100001 2.4100001 1.66 0
2.9100001 2.4100001 1.76 0
2.9100001 2.4100001 1.86 0
2.9100001 2.4100001 1.96 0
2.9100001 2.4100001 2.0599999 0
2.9100001 2.4100001 2.1600001 0
2.9100001 2.4100001 2.26 0
2.9100001 2.4100001 2.3599999 0
2.9100001 2.4100001 2.46 0
2.9100001 2.4100001 2.5599999 0
2.9100001 2.4100001 2.6600001 0
2.9100001 2.4100001 2.76 0
2.9100001 2.4100001 2.8599999 0
2.9100001 2.4100001 2.96 0
2.9100001 2.4100001 3.0599999 0
2.9100001 2.4100001 3.1600001 0
2.9100001 2.4100001 3.26 0
2.9100001 2.4100001 3.3599999 0
2.9100001 2.4100001 3.46 0
2.9100001 2.4100001 3.5599999 0
2.9100001 2.4100001 3.6600001 0
2.9100001 2.4100001 3.76 0
2.9100001 2.4100001 3.8599999 0
2.9100001 2.4100001 3.96 0
2.9100001 2.4100001 4.0599999 0
2.9100001 2.4100001 4.1599998 0
2.9100001 2.4100001 4.2600002 0
2.9100001 2.4100001 4.3600001 0
2.9100001 2.4100001 4.46 0
2.9100001 2.4100001 4.5599999 0
2.9100001 2.4100001 4.6599998 0
2.9100001 2.4100001 4.7600002 0
2.9100001 2.4100001 4.8600001 0
2.9100001 2.4100001 4.96 0
2.9100001 2.4100001 5.0599999 0
2.9100001 2.4100001 5.1599998 0
2.9100001 2.4100001 5.2600002 0
2.9100001 2.4100001 5.3600001 0
2.9100001 2.4100001 5.46 0
2.9100001 2.4100001 5.5599999 0
2.9100001 2.4100001 5.6599998 0
2.9100001 2.4100001 5.7600002 0
2.9100001 2.4100001 5.8600001 0
2.9100001 2.4100001 5.96 0
2.9100001 2.4100001 6.0599999 0
2.9100001 2.4100001 6.1599998 0
2.9100001 2.4100001 6.2600002 0
2.9100001 2.4100001 6.3600001 0
2.9100001 2.4100001 6.46 0
2.9100001 2.4100001 6.5599999 0
2.9100001 2.4100001 6.6599998 0
2.9100001 2.4100001 6.7600002 0
2.9100001 2.4100001 6.8600001 0
2.9100001 2.4100001 6.96 0
2.9100001 2.4100001 7.0599999 0
2.9100001 2.4100001 7.1599998 0
2.9100001 2.4100001 7.2600002 0
2.9100001 2.4100001 7.3600001 0
2.9100001 2.4100001 7.46 0
2.9100001 2.4100001 7.5599999 0
2.9100001 2.4100001 7.6599998 0
2.9100001 2.4100001 7.7600002 0
2.9100001 2.4100001 7.8600001 0
2.9100001 2.4100001 7.96 0
2.9100001 2.4100001 8.0600004 0
2.9100001 2.4100001 8.1599998 0
2.9100001 2.4100001 8.2600002 0
2.9100001 2.4100001 8.3599997 0
2.9100001 2.4100001 8.46 0
2.9100001 2.4100001 8.5600004 0
2.9100001 2.4100001 8.6599998 0
2.9100001 2.4100001 8.7600002 0
2.9100001 2.4100001 8.8599997 0
2.9100001 2.4100001 8.96 0
2.9100001 2.4100001 9.0600004 0
2.9100001 2.4100001 9.1599998 0
2.9100001 2.4100001 9.2600002 0
2.9100001 2.4100001 9.3599997 0
2.9100001 2.4100001 9.46 0
2.9100001 2.4100001 9.5600004 0
2.9100001 2.4100001 9.6599998 0
2.9100001 2.4100001 9.7600002 0
2.9100001 2.4100001 9.8599997 0
2.9100001 2.4100001 9.96 0
2.9100001 2.51 -0.94 0
2.9100001 2.51 -0.83999997 0
2.9100001 2.51 -0.74000001 0
2.9100001 2.51 -0.63999999 0
2.9100001 2.51 -0.54000002 0
2.9100001 2.51 -0.44 0
2.9100001 2.51 -0.34 0
2.9100001 2.51 -0.23999999 0
2.9100001 2.51 -0.14 0
2.9100001 2.51 -0.039999999 0
2.9100001 2.51 0.059999999 0
2.9100001 2.51 0.16 0
2.9100001 2.51 0.25999999 0
2.9100001 2.51 0.36000001 0
2.9100001 2.51 0.46000001 0
2.9100001 2.51 0.56 0
2.9100001 2.51 0.66000003 0
2.9100001 2.51 0.75999999 0
2.9100001 2.51 0.86000001 0
2.9100001 2.51 0.95999998 0
2.9100001 2.51 1.0599999 0
2.9100001 2.51 1.16 0
2.9100001 2.51 1.26 0
2.9100001 2.51 1.36 0
2.9100001 2.51 1.46 0
2.9100001 2.51 1.5599999 0
2.9100001 2.51 1.66 0
2.9100001 2.51 1.76 0
2.9100001 2.51 1.86 0
2.9100001 2.51 1.96 0
2.9100001 2.51 2.0599999 0
2.9100001 2.51 2.1600001 0
2.9100001 2.51 2.26 0
2.9100001 2.51 2.3599999 0
2.9100001 2.51 2.46 0
2.9100001 2.51 2.5599999 0
2.9100001 2.51 2.6600001 0
2.9100001 2.51 2.76 0
2.9100001 2.51 2.8599999 0
2.9100001 2.51 2.96 0
2.9100001 2.51 3.0599999 0
2.9100001 2.51 3.1600001 0
2.9100001 2.51 3.26 0
2.9100001 2.51 3.3599999 0
2.9100001 2.51 3.46 0
2.9100001 2.51 3.5599999 0
2.9100001 2.51 3.6600001 0
2.9100001 2.51 3.76 0
2.9100001 2.51 3.8599999 0
2.9100001 2.51 3.96 0
2.9100001 2.51 4.0599999 0
2.9100001 2.51 4.1599998 0
2.9100001 2.51 4.2600002 0
2.9100001 2.51 4.3600001 0
2.9100001 2.51 4.46 0
2.9100001 2.51 4.5599999 0
2.9100001 2.51 4.6599998 0
2.9100001 2.51 4.7600002 0
2.9100001 2.51 4.8600001 0
2.9100001 2.51 4.96 0
2.9100001 2.51 5.0599999 0
2.9100001 2.51 5.1599998 0
2.9100001 2.51 5.2600002 0
2.9100001 2.51 5.3600001 0
2.9100001 2.51 5.46 0
2.9100001 2.51 5.5599999 0
2.9100001 2.51 5.6599998 0
2.9100001 2.51 5.7600002 0
2.9100001 2.51 5.8600001 0
2.9100001 2.51 5.96 0
2.9100001 2.51 6.0599999 0
2.9100001 2.51 6.1599998 0
2.9100001 2.51 6.2600002 0
2.9100001 2.51 6.3600001 0
2.9100001 2.51 6.46 0
2.9100001 2.51 6.5599999 0
2.9100001 2.51 6.6599998 0
2.9100001 2.51 6.7600002 0
2.9100001 2.51 6.8600001 0
2.9100001 2.51 6.96 0
2.9100001 2.51 7.0599999 0
2.9100001 2.51 7.1599998 0
2.9100001 2.51 7.2600002 0
2.9100001 2.51 7.3600001 0
2.9100001 2.51 7.46 0
2.9100001 2.51 7.5599999 0
2.9100001 2.51 7.6599998 0
2.9100001 2.51 7.7600002 0
2.9100001 2.51 7.8600001 0
2.9100001 2.51 7.96 0
2.9100001 2.51 8.0600004 0
2.9100001 2.51 8.1599998 0
2.9100001 2.51 8.2600002 0
2.9100001 2.51 8.3599997 0
2.9100001 2.51 8.46 0
2.9100001 2.51 8.5600004 0
2.9100001 2.51 8.6599998 0
2.9100001 2.51 8.7600002 0
2.9100001 2.51 8.8599997 0
2.9100001 2.51 8.96 0
2.9100001 2.51 9.0600004 0
2.9100001 2.51 9.1599998 0
2.9100001 2.51 9.2600002 0
2.9100001 2.51 9.3599997 0
2.9100001 2.51 9.46 0
2.9100001 2.51 9.5600004 0
2.9100001 2.51 9.6599998 0
2.9100001 2.51 9.7600002 0
2.9100001 2.51 9.8599997 0
2.9100001 2.51 9.96 0
2.9100001 2.6099999 -0.94 0
2.9100001 2.6099999 -0.83999997 0
2.9100001 2.6099999 -0.74000001 0
2.9100001 2.6099999 -0.63999999 0
2.9100001 2.6099999 -0.54000002 0
2.9100001 2.6099999 -0.44 0
2.9100001 2.6099999 -0.34 0
2.9100001 2.6099999 -0.23999999 0
2.9100001 2.6099999 -0.14 0
2.9100001 2.6099999 -0.039999999 0
2.9100001 2.6099999 0.059999999 0
2.9100001 2.6099999 0.16 0
2.9100001 2.6099999 0.25999999 0
2.9100001 2.6099999 0.36000001 0
2.9100001 2.6099999 0.46000001 0
2.9100001 2.6099999 0.56 0
2.9100001 2.6099999 0.66000003 0
2.9100001 2.6099999 0.75999999 0
2.9100001 2.6099999 0.86000001 0
2.9100001 2.6099999 0.95999998 0
2.9100001 2.6099999 1.0599999 0
2.9100001 2.6099999 1.16 0
2.9100001 2.6099999 1.26 0
2.9100001 2.6099999 1.36 0
2.9100001 2.6099999 1.46 0
2.9100001 2.6099999 1.5599999 0
2.9100001 2.6099999 1.66 0
2.9100001 2.6099999 1.76 0
2.9100001 2.6099999 1.86 0
2.9100001 2.6099999 1.96 0
2.9100001 2.6099999 2.0599999 0
2.9100001 2.6099999 2.1600001 0
2.9100001 2.6099999 2.26 0
2.9100001 2.6099999 2.3599999 0
2.9100001 2.6099999 2.46 0
2.9100001 2.6099999 2.5599999 0
2.9100001 2.6099999 2.6600001 0
2.9100001 2.6099999 2.76 0
2.9100001 2.6099999 2.8599999 0
2.9100001 2.6099999 2.96 0
2.9100001 2.6099999 3.0599999 0
2.9100001 2.6099999 3.1600001 0
2.9100001 2.6099999 3.26 0
2.9100001 2.6099999 3.3599999 0
2.9100001 2.6099999 3.46 0
2.9100001 2.6099999 3.5599999 0
2.9100001 2.6099999 3.6600001 0
2.9100001 2.6099999 3.76 0
2.9100001 2.6099999 3.8599999 0
2.9100001 2.6099999 3.96 0
2.9100001 2.6099999 4.0599999 0
2.9100001 2.6099999 4.1599998 0
2.9100001 2.6099999 4.2600002 0
2.9100001 2.6099999 4.3600001 0
2.9100001 2.6099999 4.46 0
2.9100001 2.6099999 4.5599999 0
2.9100001 2.6099999 4.6599998 0
2.9100001 2.6099999 4.7600002 0
2.9100001 2.6099999 4.8600001 0
2.9100001 2.6099999 4.96 0
2.9100001 2.6099999 5.0599999 0
2.9100001 2.6099999 5.1599998 0
2.9100001 2.6099999 5.2600002 0
2.9100001 2.6099999 5.3600001 0
2.9100001 2.6099999 5.46 0
2.9100001 2.6099999 5.5599999 0
2.9100001 2.6099999 5.6599998 0
2.9100001 2.6099999 5.7600002 0
2.9100001 2.6099999 5.8600001 0
2.9100001 2.6099999 5.96 0
2.9100001 2.6099999 6.0599999 0
2.9100001 2.6099999 6.1599998 0
2.9100001 2.6099999 6.2600002 0
2.9100001 2.6099999 6.3600001 0
2.9100001 2.6099999 6.46 0
2.9100001 2.6099999 6.5599999 0
2.9100001 2.6099999 6.6599998 0
2.9100001 2.6099999 6.7600002 0
2.9100001 2.6099999 6.8600001 0
2.9100001 2.6099999 6.96 0
2.9100001 2.6099999 7.0599999 0
2.9100001 2.6099999 7.1599998 0
2.9100001 2.6099999 7.2600002 0
2.9100001 2.6099999 7.3600001 0
2.9100001 2.6099999 7.46 0
2.9100001 2.6099999 7.5599999 0
2.9100001 2.6099999 7.6599998 0
2.9100001 2.6099999 7.7600002 0
2.9100001 2.6099999 7.8600001 0
2.9100001 2.6099999 7.96 0
2.9100001 2.6099999 8.0600004 0
2.9100001 2.6099999 8.1599998 0
2.9100001 2.6099999 8.2600002 0
2.9100001 2.6099999 8.3599997 0
2.9100001 2.6099999 8.46 0
2.9100001 2.6099999 8.5600004 0
2.9100001 2.6099999 8.6599998 0
2.9100001 2.6099999 8.7600002 0
2.9100001 2.6099999 8.8599997 0
2.9100001 2.6099999 8.96 0
2.9100001 2.6099999 9.0600004 0
2.9100001 2.6099999 9.1599998 0
2.9100001 2.6099999 9.2600002 0
2.9100001 2.6099999 9.3599997 0
2.9100001 2.6099999 9.46 0
2.9100001 2.6099999 9.5600004 0
2.9100001 2.6099999 9.6599998 0
2.9100001 2.6099999 9.7600002 0
2.9100001 2.6099999 9.8599997 0
2.9100001 2.6099999 9.96 0
2.9100001 2.71 -0.94 0
2.9100001 2.71 -0.83999997 0
2.9100001 2.71 -0.74000001 0
2.9100001 2.71 -0.63999999 0
2.9100001 2.71 -0.54000002 0
2.9100001 2.71 -0.44 0
2.9100001 2.71 -0.34 0
2.9100001 2.71 -0.23999999 0
2.9100001 2.71 -0.14 0
2.9100001 2.71 -0.039999999 0
2.9100001 2.71 0.059999999 0
2.9100001 2.71 0.16 0
2.9100001 2.71 0.25999999 0
2.9100001 2.71 0.36000001 0
2.9100001 2.71 0.46000001 0
2.9100001 2.71 0.56 0
2.9100001 2.71 0.66000003 0
2.9100001 2.71 0.75999999 0
2.9100001 2.71 0.86000001 0
2.9100001 2.71 0.95999998 0
2.9100001 2.71 1.0599999 0
2.9100001 2.71 1.16 0
2.9100001 2.71 1.26 0
2.9100001 2.71 1.36 0
2.9100001 2.71 1.46 0
2.9100001 2.71 1.5599999 0
2.9100001 2.71 1.66 0
2.9100001 2.71 1.76 0
2.9100001 2.71 1.86 0
2.9100001 2.71 1.96 0
2.9100001 2.71 2.0599999 0
2.9100001 2.71 2.1600001 0
2.9100001 2.71 2.26 0
2.9100001 2.71 2.3599999 0
2.9100001 2.71 2.46 0
2.9100001 2.71 2.5599999 0
2.9100001 2.71 2.6600001 0
2.9100001 2.71 2.76 0
2.9100001 2.71 2.8599999 0
2.9100001 2.71 2.96 0
2.9100001 2.71 3.0599999 0
2.9100001 2.71 3.1600001 0
2.9100001 2.71 3.26 0
2.9100001 2.71 3.3599999 0
2.9100001 2.71 3.46 0
2.9100001 2.71 3.5599999 0
2.9100001 2.71 3.6600001 0
2.9100001 2.71 3.76 0
2.9100001 2.71 3.8599999 0
2.9100001 2.71 3.96 0
2.9100001 2.71 4.0599999 0
2.9100001 2.71 4.1599998 0
2.9100001 2.71 4.2600002 0
2.9100001 2.71 4.3600001 0
2.9100001 2.71 4.46 0
2.9100001 2.71 4.5599999 0
2.9100001 2.71 4.6599998 0
2.9100001 2.71 4.7600002 0
2.9100001 2.71 4.8600001 0
2.9100001 2.71 4.96 0
2.9100001 2.71 5.0599999 0
2.9100001 2.71 5.1599998 0
2.9100001 2.71 5.2600002 0
2.9100001 2.71 5.3600001 0
2.9100001 2.71 5.46 0
2.9100001 2.71 5.5599999 0
2.9100001 2.71 5.6599998 0
2.9100001 2.71 5.7600002 0
2.9100001 2.71 5.8600001 0
2.9100001 2.71 5.96 0
2.9100001 2.71 6.0599999 0
2.9100001 2.71 6.1599998 0
2.9100001 2.71 6.2600002 0
2.9100001 2.71 6.3600001 0
2.9100001 2.71 6.46 0
2.9100001 2.71 6.5599999 0
2.9100001 2.71 6.6599998 0
2.9100001 2.71 6.7600002 0
2.9100001 2.71 6.8600001 0
2.9100001 2.71 6.96 0
2.9100001 2.71 7.0599999 0
2.9100001 2.71 7.1599998 0
2.9100001 2.71 7.2600002 0
2.9100001 2.71 7.3600001 0
2.9100001 2.71 7.46 0
2.9100001 2.71 7.5599999 0
2.9100001 2.71 7.6599998 0
2.9100001 2.71 7.7600002 0
2.9100001 2.71 7.8600001 0
2.9100001 2.71 7.96 0
2.9100001 2.71 8.0600004 0
2.9100001 2.71 8.1599998 0
2.9100001 2.71 8.2600002 0
2.9100001 2.71 8.3599997 0
2.9100001 2.71 8.46 0
2.9100001 2.71 8.5600004 0
2.9100001 2.71 8.6599998 0
2.9100001 2.71 8.7600002 0
2.9100001 2.71 8.8599997 0
2.9100001 2.71 8.96 0
2.9100001 2.71 9.0600004 0
2.9100001 2.71 9.1599998 0
2.9100001 2.71 9.2600002 0
2.9100001 2.71 9.3599997 0
2.9100001 2.71 9.46 0
2.9100001 2.71 9.5600004 0
2.9100001 2.71 9.6599998 0
2.9100001 2.71 9.7600002 0
2.9100001 2.71 9.8599997 0
2.9100001 2.71 9.96 0
3.01 1.61 -0.94 0
3.01 1.61 -0.83999997 0
3.01 1.61 -0.74000001 0
3.01 1.61 -0.63999999 0
3.01 1.61 -0.54000002 0
3.01 1.61 -0.44 0
3.01 1.61 -0.34 0
3.01 1.61 -0.23999999 0
3.01 1.61 -0.14 0
3.01 1.61 -0.039999999 0
3.01 1.61 0.059999999 0
3.01 1.61 0.16 0
3.01 1.61 0.25999999 0
3.01 1.61 0.36000001 0
3.01 1.61 0.46000001 0
3.01 1.61 0.56 0
3.01 1.61 0.66000003 0
3.01 1.61 0.75999999 0
3.01 1.61 0.86000001 0
3.01 1.61 0.95999998 0
3.01 1.61 1.0599999 0
3.01 1.61 1.16 0
3.01 1.61 1.26 0
3.01 1.61 1.36 0
3.01 1.61 1.46 0
3.01 1.61 1.5599999 0
3.01 1.61 1.66 0
3.01 1.61 1.76 0
3.01 1.61 1.86 0
3.01 1.61 1.96 0
3.01 1.61 2.0599999 0
3.01 1.61 2.1600001 0
3.01 1.61 2.26 0
3.01 1.61 2.3599999 0
3.01 1.61 2.46 0
3.01 1.61 2.5599999 0
3.01 1.61 2.6600001 0
3.01 1.61 2.76 0
3.01 1.61 2.8599999 0
3.01 1.61 2.96 0
3.01 1.61 3.0599999 0
3.01 1.61 3.1600001 0
3.01 1.61 3.26 0
3.01 1.61 3.3599999 0
3.01 1.61 3.46 0
3.01 1.61 3.5599999 0
3.01 1.61 3.6600001 0
3.01 1.61 3.76 0
3.01 1.61 3.8599999 0
3.01 1.61 3.96 0
3.01 1.61 4.0599999 0
3.01 1.61 4.1599998 0
3.01 1.61 4.2600002 0
3.01 1.61 4.3600001 0
3.01 1.61 4.46 0
3.01 1.61 4.5599999 0
3.01 1.61 4.6599998 0
3.01 1.61 4.7600002 0
3.01 1.61 4.8600001 0
3.01 1.61 4.96 0
3.01 1.61 5.0599999 0
3.01 1.61 5.1599998 0
3.01 1.61 5.2600002 0
3.01 1.61 5.3600001 0
3.01 1.61 5.46 0
3.01 1.61 5.5599999 0
3.01 1.61 5.6599998 0
3.01 1.61 5.7600002 0
3.01 1.61 5.8600001 0
3.01 1.61 5.96 0
3.01 1.61 6.0599999 0
3.01 1.61 6.1599998 0
3.01 1.61 6.2600002 0
3.01 1.61 6.3600001 0
3.01 1.61 6.46 0
3.01 1.61 6.5599999 0
3.01 1.61 6.6599998 0
3.01 1.61 6.7600002 0
3.01 1.61 6.8600001 0
3.01 1.61 6.96 0
3.01 1.61 7.0599999 0
3.01 1.61 7.1599998 0
3.01 1.61 7.2600002 0
3.01 1.61 7.3600001 0
3.01 1.61 7.46 0
3.01 1.61 7.5599999 0
3.01 1.61 7.6599998 0
3.01 1.61 7.7600002 0
3.01 1.61 7.8600001 0
3.01 1.61 7.96 0
3.01 1.61 8.0600004 0
3.01 1.61 8.1599998 0
3.01 1.61 8.2600002 0
3.01 1.61 8.3599997 0
3.01 1.61 8.46 0
3.01 1.61 8.5600004 0
3.01 1.61 8.6599998 0
3.01 1.61 8.7600002 0
3.01 1.61 8.8599997 0
3.01 1.61 8.96 0
3.01 1.61 9.0600004 0
3.01 1.61 9.1599998 0
3.01 1.61 9.2600002 0
3.01 1.61 9.3599997 0
3.01 1.61 9.46 0
3.01 1.61 9.5600004 0
3.01 1.61 9.6599998 0
3.01 1.61 9.7600002 0
3.01 1.61 9.8599997 0
3.01 1.61 9.96 0
3.01 1.71 -0.94 0
3.01 1.71 -0.83999997 0
3.01 1.71 -0.74000001 0
3.01 1.71 -0.63999999 0
3.01 1.71 -0.54000002 0
3.01 1.71 -0.44 0
3.01 1.71 -0.34 0
3.01 1.71 -0.23999999 0
3.01 1.71 -0.14 0
3.01 1.71 -0.039999999 0
3.01 1.71 0.059999999 0
3.01 1.71 0.16 0
3.01 1.71 0.25999999 0
3.01 1.71 0.36000001 0
3.01 1.71 0.46000001 0
3.01 1.71 0.56 0
3.01 1.71 0.66000003 0
3.01 1.71 0.75999999 0
3.01 1.71 0.86000001 0
3.01 1.71 0.95999998 0
3.01 1.71 1.0599999 0
3.01 1.71 1.16 0
3.01 1.71 1.26 0
3.01 1.71 1.36 0
3.01 1.71 1.46 0
3.01 1.71 1.5599999 0
3.01 1.71 1.66 0
3.01 1.71 1.76 0
3.01 1.71 1.86 0
3.01 1.71 1.96 0
3.01 1.71 2.0599999 0
3.01 1.71 2.1600001 0
3.01 1.71 2.26 0
3.01 1.71 2.3599999 0
3.01 1.71 2.46 0
3.01 1.71 2.5599999 0
3.01 1.71 2.6600001 0
3.01 1.71 2.76 0
3.01 1.71 2.8599999 0
3.01 1.71 2.96 0
3.01 1.71 3.0599999 0
3.01 1.71 3.1600001 0
3.01 1.71 3.26 0
3.01 1.71 3.3599999 0
3.01 1.71 3.46 0
3.01 1.71 3.5599999 0
3.01 1.71 3.6600001 0
3.01 1.71 3.76 0
3.01 1.71 3.8599999 0
3.01 1.71 3.96 0
3.01 1.71 4.0599999 0
3.01 1.71 4.1599998 0
3.01 1.71 4.2600002 0
3.01 1.71 4.3600001 0
3.01 1.71 4.46 0
3.01 1.71 4.5599999 0
3.01 1.71 4.6599998 0
3.01 1.71 4.7600002 0
3.01 1.71 4.8600001 0
3.01 1.71 4.96 0
3.01 1.71 5.0599999 0
3.01 1.71 5.1599998 0
3.01 1.71 5.2600002 0
3.01 1.71 5.3600001 0
3.01 1.71 5.46 0
3.01 1.71 5.5599999 0
3.01 1.71 5.6599998 0
3.01 1.71 5.7600002 0
3.01 1.71 5.8600001 0
3.01 1.71 5.96 0
3.01 1.71 6.0599999 0
3.01 1.71 6.1599998 0
3.01 1.71 6.2600002 0
3.01 1.71 6.3600001 0
3.01 1.71 6.46 0
3.01 1.71 6.5599999 0
3.01 1.71 6.6599998 0
3.01 1.71 6.7600002 0
3.01 1.71 6.8600001 0
3.01 1.71 6.96 0
3.01 1.71 7.0599999 0
3.01 1.71 7.1599998 0
3.01 1.71 7.2600002 0
3.01 1.71 7.3600001 0
3.01 1.71 7.46 0
3.01 1.71 7.5599999 0
3.01 1.71 7.6599998 0
3.01 1.71 7.7600002 0
3.01 1.71 7.8600001 0
3.01 1.71 7.96 0
3.01 1.71 8.0600004 0
3.01 1.71 8.1599998 0
3.01 1.71 8.2600002 0
3.01 1.71 8.3599997 0
3.01 1.71 8.46 0
3.01 1.71 8.5600004 0
3.01 1.71 8.6599998 0
3.01 1.71 8.7600002 0
3.01 1.71 8.8599997 0
3.01 1.71 8.96 0
3.01 1.71 9.0600004 0
3.01 1.71 9.1599998 0
3.01 1.71 9.2600002 0
3.01 1.71 9.3599997 0
3.01 1.71 9.46 0
3.01 1.71 9.5600004 0
3.01 1.71 9.6599998 0
3.01 1.71 9.7600002 0
3.01 1.71 9.8599997 0
3.01 1.71 9.96 0
3.01 1.8099999 -0.94 0
3.01 1.8099999 -0.83999997 0
3.01 1.8099999 -0.74000001 0
3.01 1.8099999 -0.63999999 0
3.01 1.8099999 -0.54000002 0
3.01 1.8099999 -0.44 0
3.01 1.8099999 -0.34 0
3.01 1.8099999 -0.23999999 0
3.01 1.8099999 -0.14 0
3.01 1.8099999 -0.039999999 0
3.01 1.8099999 0.059999999 0
3.01 1.8099999 0.16 0
3.01 1.8099999 0.25999999 0
3.01 1.8099999 0.36000001 0
3.01 1.8099999 0.46000001 0
3.01 1.8099999 0.56 0
3.01 1.8099999 0.66000003 0
3.01 1.8099999 0.75999999 0
3.01 1.8099999 0.86000001 0
3.01 1.8099999 0.95999998 0
3.01 1.8099999 1.0599999 0
3.01 1.8099999 1.16 0
3.01 1.8099999 1.26 0
3.01 1.8099999 1.36 0
3.01 1.8099999 1.46 0
3.01 1.8099999 1.5599999 0
3.01 1.8099999 1.66 0
3.01 1.8099999 1.76 0
3.01 1.8099999 1.86 0
3.01 1.8099999 1.96 0
3.01 1.8099999 2.0599999 0
3.01 1.8099999 2.1600001 0
3.01 1.8099999 2.26 0
3.01 1.8099999 2.3599999 0
3.01 1.8099999 2.46 0
3.01 1.8099999 2.5599999 0
3.01 1.8099999 2.6600001 0
3.01 1.8099999 2.76 0
3.01 1.8099999 2.8599999 0
3.01 1.8099999 2.96 0
3.01 1.8099999 3.0599999 0
3.01 1.8099999 3.1600001 0
3.01 1.8099999 3.26 0
3.01 1.8099999 3.3599999 0
3.01 1.8099999 3.46 0
3.01 1.8099999 3.5599999 0
3.01 1.8099999 3.6600001 0
3.01 1.8099999 3.76 0
3.01 1.8099999 3.8599999 0
3.01 1.8099999 3.96 0
3.01 1.8099999 4.0599999 0
3.01 1.8099999 4.1599998 0
3.01 1.8099999 4.2600002 0
3.01 1.8099999 4.3600001 0
3.01 1.8099999 4.46 0
3.01 1.8099999 4.5599999 0
3.01 1.8099999 4.6599998 0
3.01 1.8099999 4.7600002 0
3.01 1.8099999 4.8600001 0
3.01 1.8099999 4.96 0
3.01 1.8099999 5.0599999 0
3.01 1.8099999 5.1599998 0
3.01 1.8099999 5.2600002 0
3.01 1.8099999 5.3600001 0
3.01 1.8099999 5.46 0
3.01 1.8099999 5.5599999 0
3.01 1.8099999 5.6599998 0
3.01 1.8099999 5.7600002 0
3.01 1.8099999 5.8600001 0
3.01 1.8099999 5.96 0
3.01 1.8099999 6.0599999 0
3.01 1.8099999 6.1599998 0
3.01 1.8099999 6.2600002 0
3.01 1.8099999 6.3600001 0
3.01 1.8099999 6.46 0
3.01 1.8099999 6.5599999 0
3.01 1.8099999 6.6599998 0
3.01 1.8099999 6.7600002 0
3.01 1.8099999 6.8600001 0
3.01 1.8099999 6.96 0
3.01 1.8099999 7.0599999 0
3.01 1.8099999 7.1599998 0
3.01 1.8099999 7.2600002 0
3.01 1.8099999 7.3600001 0
3.01 1.8099999 7.46 0
3.01 1.8099999 7.5599999 0
3.01 1.8099999 7.6599998 0
3.01 1.8099999 7.7600002 0
3.01 1.8099999 7.8600001 0
3.01 1.8099999 7.96 0
3.01 1.8099999 8.0600004 0
3.01 1.8099999 8.1599998 0
3.01 1.8099999 8.2600002 0
3.01 1.8099999 8.3599997 0
3.01 1.8099999 8.46 0
3.01 1.8099999 8.5600004 0
3.01 1.8099999 8.6599998 0
3.01 1.8099999 8.7600002 0
3.01 1.8099999 8.8599997 0
3.01 1.8099999 8.96 0
3.01 1.8099999 9.0600004 0
3.01 1.8099999 9.1599998 0
3.01 1.8099999 9.2600002 0
3.01 1.8099999 9.3599997 0
3.01 1.8099999 9.46 0
3.01 1.8099999 9.5600004 0
3.01 1.8099999 9.6599998 0
3.01 1.8099999 9.7600002 0
3.01 1.8099999 9.8599997 0
3.01 1.8099999 9.96 0
3.01 1.91 -0.94 0
3.01 1.91 -0.83999997 0
3.01 1.91 -0.74000001 0
3.01 1.91 -0.63999999 0
3.01 1.91 -0.54000002 0
3.01 1.91 -0.44 0
3.01 1.91 -0.34 0
3.01 1.91 -0.23999999 0
3.01 1.91 -0.14 0
3.01 1.91 -0.039999999 0
3.01 1.91 0.059999999 0
3.01 1.91 0.16 0
3.01 1.91 0.25999999 0
3.01 1.91 0.36000001 0
3.01 1.91 0.46000001 0
3.01 1.91 0.56 0
3.01 1.91 0.66000003 0
3.01 1.91 0.75999999 0
3.01 1.91 0.86000001 0
3.01 1.91 0.95999998 0
3.01 1.91 1.0599999 0
3.01 1.91 1.16 0
3.01 1.91 1.26 0
3.01 1.91 1.36 0
3.01 1.91 1.46 0
3.01 1.91 1.5599999 0
3.01 1.91 1.66 0
3.01 1.91 1.76 0
3.01 1.91 1.86 0
3.01 1.91 1.96 0
3.01 1.91 2.0599999 0
3.01 1.91 2.1600001 0
3.01 1.91 2.26 0
3.01 1.91 2.3599999 0
3.01 1.91 2.46 0
3.01 1.91 2.5599999 0
3.01 1.91 2.6600001 0
3.01 1.91 2.76 0
3.01 1.91 2.8599999 0
3.01 1.91 2.96 0
3.01 1.91 3.0599999 0
3.01 1.91 3.1600001 0
3.01 1.91 3.26 0
3.01 1.91 3.3599999 0
3.01 1.91 3.46 0
3.01 1.91 3.5599999 0
3.01 1.91 3.6600001 0
3.01 1.91 3.76 0
3.01 1.91 3.8599999 0
3.01 1.91 3.96 0
3.01 1.91 4.0599999 0
3.01 1.91 4.1599998 0
3.01 1.91 4.2600002 0
3.01 1.91 4.3600001 0
3.01 1.91 4.46 0
3.01 1.91 4.5599999 0
3.01 1.91 4.6599998 0
3.01 1.91 4.7600002 0
3.01 1.91 4.8600001 0
3.01 1.91 4.96 0
3.01 1.91 5.0599999 0
3.01 1.91 5.1599998 0
3.01 1.91 5.2600002 0
3.01 1.91 5.3600001 0
3.01 1.91 5.46 0
3.01 1.91 5.5599999 0
3.01 1.91 5.6599998 0
3.01 1.91 5.7600002 0
3.01 1.91 5.8600001 0
3.01 1.91 5.96 0
3.01 1.91 6.0599999 0
3.01 1.91 6.1599998 0
3.01 1.91 6.2600002 0
3.01 1.91 6.3600001 0
3.01 1.91 6.46 0
3.01 1.91 6.5599999 0
3.01 1.91 6.6599998 0
3.01 1.91 6.7600002 0
3.01 1.91 6.8600001 0
3.01 1.91 6.96 0
3.01 1.91 7.0599999 0
3.01 1.91 7.1599998 0
3.01 1.91 7.2600002 0
3.01 1.91 7.3600001 0
3.01 1.91 7.46 0
3.01 1.91 7.5599999 0
3.01 1.91 7.6599998 0
3.01 1.91 7.7600002 0
3.01 1.91 7.8600001 0
3.01 1.91 7.96 0
3.01 1.91 8.0600004 0
3.01 1.91 8.1599998 0
3.01 1.91 8.2600002 0
3.01 1.91 8.3599997 0
3.01 1.91 8.46 0
3.01 1.91 8.5600004 0
3.01 1.91 8.6599998 0
3.01 1.91 8.7600002 0
3.01 1.91 8.8599997 0
3.01 1.91 8.96 0
3.01 1.91 9.0600004 0
3.01 1.91 9.1599998 0
3.01 1.91 9.2600002 0
3.01 1.91 9.3599997 0
3.01 1.91 9.46 0
3.01 1.91 9.5600004 0
3.01 1.91 9.6599998 0
3.01 1.91 9.7600002 0
3.01 1.91 9.8599997 0
3.01 1.91 9.96 0
3.01 2.01 -0.94 0
3.01 2.01 -0.83999997 0
3.01 2.01 -0.74000001 0
3.01 2.01 -0.63999999 0
3.01 2.01 -0.54000002 0
3.01 2.01 -0.44 0
3.01 2.01 -0.34 0
3.01 2.01 -0.23999999 0
3.01 2.01 -0.14 0
3.01 2.01 -0.039999999 0
3.01 2.01 0.059999999 0
3.01 2.01 0.16 0
3.01 2.01 0.25999999 0
3.01 2.01 0.36000001 0
3.01 2.01 0.46000001 0
3.01 2.01 0.56 0
3.01 2.01 0.66000003 0
3.01 2.01 0.75999999 0
3.01 2.01 0.86000001 0
3.01 2.01 0.95999998 0
3.01 2.01 1.0599999 0
3.01 2.01 1.16 0
3.01 2.01 1.26 0
3.01 2.01 1.36 0
3.01 2.01 1.46 0
3.01 2.01 1.5599999 0
3.01 2.01 1.66 0
3.01 2.01 1.76 0
3.01 2.01 1.86 0
3.01 2.01 1.96 0
3.01 2.01 2.0599999 0
3.01 2.01 2.1600001 0
3.01 2.01 2.26 0
3.01 2.01 2.3599999 0
3.01 2.01 2.46 0
3.01 2.01 2.5599999 0
3.01 2.01 2.6600001 0
3.01 2.01 2.76 0
3.01 2.01 2.8599999 0
3.01 2.01 2.96 0
3.01 2.01 3.0599999 0
3.01 2.01 3.1600001 0
3.01 2.01 3.26 0
3.01 2.01 3.3599999 0
3.01 2.01 3.46 0
3.01 2.01 3.5599999 0
3.01 2.01 3.6600001 0
3.01 2.01 3.76 0
3.01 2.01 3.8599999 0
3.01 2.01 3.96 0
3.01 2.01 4.0599999 0
3.01 2.01 4.1599998 0
3.01 2.01 4.2600002 0
3.01 2.01 4.3600001 0
3.01 2.01 4.46 0
3.01 2.01 4.5599999 0
3.01 2.01 4.6599998 0
3.01 2.01 4.7600002 0
3.01 2.01 4.8600001 0
3.01 2.01 4.96 0
3.01 2.01 5.0599999 0
3.01 2.01 5.1599998 0
3.01 2.01 5.2600002 0
3.01 2.01 5.3600001 0
3.01 2.01 5.46 0
3.01 2.01 5.5599999 0
3.01 2.01 5.6599998 0
3.01 2.01 5.7600002 0
3.01 2.01 5.8600001 0
3.01 2.01 5.96 0
3.01 2.01 6.0599999 0
3.01 2.01 6.1599998 0
3.01 2.01 6.2600002 0
3.01 2.01 6.3600001 0
3.01 2.01 6.46 0
3.01 2.01 6.5599999 0
3.01 2.01 6.6599998 0
3.01 2.01 6.7600002 0
3.01 2.01 6.8600001 0
3.01 2.01 6.96 0
3.01 2.01 7.0599999 0
3.01 2.01 7.1599998 0
3.01 2.01 7.2600002 0
3.01 2.01 7.3600001 0
3.01 2.01 7.46 0
3.01 2.01 7.5599999 0
3.01 2.01 7.6599998 0
3.01 2.01 7.7600002 0
3.01 2.01 7.8600001 0
3.01 2.01 7.96 0
3.01 2.01 8.0600004 0
3.01 2.01 8.1599998 0
3.01 2.01 8.2600002 0
3.01 2.01 8.3599997 0
3.01 2.01 8.46 0
3.01 2.01 8.5600004 0
3.01 2.01 8.6599998 0
3.01 2.01 8.7600002 0
3.01 2.01 8.8599997 0
3.01 2.01 8.96 0
3.01 2.01 9.0600004 0
3.01 2.01 9.1599998 0
3.01 2.01 9.2600002 0
3.01 2.01 9.3599997 0
3.01 2.01 9.46 0
3.01 2.01 9.5600004 0
3.01 2.01 9.6599998 0
3.01 2.01 9.7600002 0
3.01 2.01 9.8599997 0
3.01 2.01 9.96 0
3.01 2.1099999 -0.94 0
3.01 2.1099999 -0.83999997 0
3.01 2.1099999 -0.74000001 0
3.01 2.1099999 -0.63999999 0
3.01 2.1099999 -0.54000002 0
3.01 2.1099999 -0.44 0
3.01 2.1099999 -0.34 0
3.01 2.1099999 -0.23999999 0
3.01 2.1099999 -0.14 0
3.01 2.1099999 -0.039999999 0
3.01 2.1099999 0.059999999 0
3.01 2.1099999 0.16 0
3.01 2.1099999 0.25999999 0
3.01 2.1099999 0.36000001 0
3.01 2.1099999 0.46000001 0
3.01 2.1099999 0.56 0
3.01 2.1099999 0.66000003 0
3.01 2.1099999 0.75999999 0
3.01 2.1099999 0.86000001 0
3.01 2.1099999 0.95999998 0
3.01 2.1099999 1.0599999 0
3.01 2.1099999 1.16 0
3.01 2.1099999 1.26 0
3.01 2.1099999 1.36 0
3.01 2.1099999 1.46 0
3.01 2.1099999 1.5599999 0
3.01 2.1099999 1.66 0
3.01 2.1099999 1.76 0
3.01 2.1099999 1.86 0
3.01 2.1099999 1.96 0
3.01 2.1099999 2.0599999 0
3.01 2.1099999 2.1600001 0
3.01 2.1099999 2.26 0
3.01 2.1099999 2.3599999 0
3.01 2.1099999 2.46 0
3.01 2.1099999 2.5599999 0
3.01 2.1099999 2.6600001 0
3.01 2.1099999 2.76 0
3.01 2.1099999 2.8599999 0
3.01 2.1099999 2.96 0
3.01 2.1099999 3.0599999 0
3.01 2.1099999 3.1600001 0
3.01 2.1099999 3.26 0
3.01 2.1099999 3.3599999 0
3.01 2.1099999 3.46 0
3.01 2.1099999 3.5599999 0
3.01 2.1099999 3.6600001 0
3.01 2.1099999 3.76 0
3.01 2.1099999 3.8599999 0
3.01 2.1099999 3.96 0
3.01 2.1099999 4.0599999 0
3.01 2.1099999 4.1599998 0
3.01 2.1099999 4.2600002 0
3.01 2.1099999 4.3600001 0
3.01 2.1099999 4.46 0
3.01 2.1099999 4.5599999 0
3.01 2.1099999 4.6599998 0
3.01 2.1099999 4.7600002 0
3.01 2.1099999 4.8600001 0
3.01 2.1099999 4.96 0
3.01 2.1099999 5.0599999 0
3.01 2.1099999 5.1599998 0
3.01 2.1099999 5.2600002 0
3.01 2.1099999 5.3600001 0
3.01 2.1099999 5.46 0
3.01 2.1099999 5.5599999 0
3.01 2.1099999 5.6599998 0
3.01 2.1099999 5.7600002 0
3.01 2.1099999 5.8600001 0
3.01 2.1099999 5.96 0
3.01 2.1099999 6.0599999 0
3.01 2.1099999 6.1599998 0
3.01 2.1099999 6.2600002 0
3.01 2.1099999 6.3600001 0
3.01 2.1099999 6.46 0
3.01 2.1099999 6.5599999 0
3.01 2.1099999 6.6599998 0
3.01 2.1099999 6.7600002 0
3.01 2.1099999 6.8600001 0
3.01 2.1099999 6.96 0
3.01 2.1099999 7.0599999 0
3.01 2.1099999 7.1599998 0
3.01 2.1099999 7.2600002 0
3.01 2.1099999 7.3600001 0
3.01 2.1099999 7.46 0
3.01 2.1099999 7.5599999 0
3.01 2.1099999 7.6599998 0
3.01 2.1099999 7.7600002 0
3.01 2.1099999 7.8600001 0
3.01 2.1099999 7.96 0
3.01 2.1099999 8.0600004 0
3.01 2.1099999 8.1599998 0
3.01 2.1099999 8.2600002 0
3.01 2.1099999 8.3599997 0
3.01 2.1099999 8.46 0
3.01 2.1099999 8.5600004 0
3.01 2.1099999 8.6599998 0
3.01 2.1099999 8.7600002 0
3.01 2.1099999 8.8599997 0
3.01 2.1099999 8.96 0
3.01 2.1099999 9.0600004 0
3.01 2.1099999 9.1599998 0
3.01 2.1099999 9.2600002 0
3.01 2.1099999 9.3599997 0
3.01 2.1099999 9.46 0
3.01 2.1099999 9.5600004 0
3.01 2.1099999 9.6599998 0
3.01 2.1099999 9.7600002 0
3.01 2.1099999 9.8599997 0
3.01 2.1099999 9.96 0
3.01 2.21 -0.94 0
3.01 2.21 -0.83999997 0
3.01 2.21 -0.74000001 0
3.01 2.21 -0.63999999 0
3.01 2.21 -0.54000002 0
3.01 2.21 -0.44 0
3.01 2.21 -0.34 0
3.01 2.21 -0.23999999 0
3.01 2.21 -0.14 0
3.01 2.21 -0.039999999 0
3.01 2.21 0.059999999 0
3.01 2.21 0.16 0
3.01 2.21 0.25999999 0
3.01 2.21 0.36000001 0
3.01 2.21 0.46000001 0
3.01 2.21 0.56 0
3.01 2.21 0.66000003 0
3.01 2.21 0.75999999 0
3.01 2.21 0.86000001 0
3.01 2.21 0.95999998 0
3.01 2.21 1.0599999 0
3.01 2.21 1.16 0
3.01 2.21 1.26 0
3.01 2.21 1.36 0
3.01 2.21 1.46 0
3.01 2.21 1.5599999 0
3.01 2.21 1.66 0
3.01 2.21 1.76 0
3.01 2.21 1.86 0
3.01 2.21 1.96 0
3.01 2.21 2.0599999 0
3.01 2.21 2.1600001 0
3.01 2.21 2.26 0
3.01 2.21 2.3599999 0
3.01 2.21 2.46 0
3.01 2.21 2.5599999 0
3.01 2.21 2.6600001 0
3.01 2.21 2.76 0
3.01 2.21 2.8599999 0
3.01 2.21 2.96 0
3.01 2.21 3.0599999 0
3.01 2.21 3.1600001 0
3.01 2.21 3.26 0
3.01 2.21 3.3599999 0
3.01 2.21 3.46 0
3.01 2.21 3.5599999 0
3.01 2.21 3.6600001 0
3.01 2.21 3.76 0
3.01 2.21 3.8599999 0
3.01 2.21 3.96 0
3.01 2.21 4.0599999 0
3.01 2.21 4.1599998 0
3.01 2.21 4.2600002 0
3.01 2.21 4.3600001 0
3.01 2.21 4.46 0
3.01 2.21 4.5599999 0
3.01 2.21 4.6599998 0
3.01 2.21 4.7600002 0
3.01 2.21 4.8600001 0
3.01 2.21 4.96 0
3.01 2.21 5.0599999 0
3.01 2.21 5.1599998 0
3.01 2.21 5.2600002 0
3.01 2.21 5.3600001 0
3.01 2.21 5.46 0
3.01 2.21 5.5599999 0
3.01 2.21 5.6599998 0
3.01 2.21 5.7600002 0
3.01 2.21 5.8600001 0
3.01 2.21 5.96 0
3.01 2.21 6.0599999 0
3.01 2.21 6.1599998 0
3.01 2.21 6.2600002 0
3.01 2.21 6.3600001 0
3.01 2.21 6.46 0
3.01 2.21 6.5599999 0
3.01 2.21 6.6599998 0
3.01 2.21 6.7600002 0
3.01 2.21 6.8600001 0
3.01 2.21 6.96 0
3.01 2.21 7.0599999 0
3.01 2.21 7.1599998 0
3.01 2.21 7.2600002 0
3.01 2.21 7.3600001 0
3.01 2.21 7.46 0
3.01 2.21 7.5599999 0
3.01 2.21 7.6599998 0
3.01 2.21 7.7600002 0
3.01 2.21 7.8600001 0
3.01 2.21 7.96 0
3.01 2.21 8.0600004 0
3.01 2.21 8.1599998 0
3.01 2.21 8.2600002 0
3.01 2.21 8.3599997 0
3.01 2.21 8.46 0
3.01 2.21 8.5600004 0
3.01 2.21 8.6599998 0
3.01 2.21 8.7600002 0
3.01 2.21 8.8599997 0
3.01 2.21 8.96 0
3.01 2.21 9.0600004 0
3.01 2.21 9.1599998 0
3.01 2.21 9.2600002 0
3.01 2.21 9.3599997 0
3.01 2.21 9.46 0
3.01 2.21 9.5600004 0
3.01 2.21 9.6599998 0
3.01 2.21 9.7600002 0
3.01 2.21 9.8599997 0
3.01 2.21 9.96 0
3.01 2.3099999 -0.94 0
3.01 2.3099999 -0.83999997 0
3.01 2.3099999 -0.74000001 0
3.01 2.3099999 -0.63999999 0
3.01 2.3099999 -0.54000002 0
3.01 2.3099999 -0.44 0
3.01 2.3099999 -0.34 0
3.01 2.3099999 -0.23999999 0
3.01 2.3099999 -0.14 0
3.01 2.3099999 -0.039999999 0
3.01 2.3099999 0.059999999 0
3.01 2.3099999 0.16 0
3.01 2.3099999 0.25999999 0
3.01 2.3099999 0.36000001 0
3.01 2.3099999 0.46000001 0
3.01 2.3099999 0.56 0
3.01 2.3099999 0.66000003 0
3.01 2.3099999 0.75999999 0
3.01 2.3099999 0.86000001 0
3.01 2.3099999 0.95999998 0
3.01 2.3099999 1.0599999 0
3.01 2.3099999 1.16 0
3.01 2.3099999 1.26 0
3.01 2.3099999 1.36 0
3.01 2.3099999 1.46 0
3.01 2.3099999 1.5599999 0
3.01 2.3099999 1.66 0
3.01 2.3099999 1.76 0
3.01 2.3099999 1.86 0
3.01 2.3099999 1.96 0
3.01 2.3099999 2.0599999 0
3.01 2.3099999 2.1600001 0
3.01 2.3099999 2.26 0
3.01 2.3099999 2.3599999 0
3.01 2.3099999 2.46 0
3.01 2.3099999 2.5599999 0
3.01 2.3099999 2.6600001 0
3.01 2.3099999 2.76 0
3.01 2.3099999 2.8599999 0
3.01 2.3099999 2.96 0
3.01 2.3099999 3.0599999 0
3.01 2.3099999 3.1600001 0
3.01 2.3099999 3.26 0
3.01 2.3099999 3.3599999 0
3.01 2.3099999 3.46 0
3.01 2.3099999 3.5599999 0
3.01 2.3099999 3.6600001 0
3.01 2.3099999 3.76 0
3.01 2.3099999 3.8599999 0
3.01 2.3099999 3.96 0
3.01 2.3099999 4.0599999 0
3.01 2.3099999 4.1599998 0
3.01 2.3099999 4.2600002 0
3.01 2.3099999 4.3600001 0
3.01 2.3099999 4.46 0
3.01 2.3099999 4.5599999 0
3.01 2.3099999 4.6599998 0
3.01 2.3099999 4.7600002 0
3.01 2.3099999 4.8600001 0
3.01 2.3099999 4.96 0
3.01 2.3099999 5.0599999 0
3.01 2.3099999 5.1599998 0
3.01 2.3099999 5.2600002 0
3.01 2.3099999 5.3600001 0
3.01 2.3099999 5.46 0
3.01 2.3099999 5.5599999 0
3.01 2.3099999 5.6599998 0
3.01 2.3099999 5.7600002 0
3.01 2.3099999 5.8600001 0
3.01 2.3099999 5.96 0
3.01 2.3099999 6.0599999 0
3.01 2.3099999 6.1599998 0
3.01 2.3099999 6.2600002 0
3.01 2.3099999 6.3600001 0
3.01 2.3099999 6.46 0
3.01 2.3099999 6.5599999 0
3.01 2.3099999 6.6599998 0
3.01 2.3099999 6.7600002 0
3.01 2.3099999 6.8600001 0
3.01 2.3099999 6.96 0
3.01 2.3099999 7.0599999 0
3.01 2.3099999 7.1599998 0
3.01 2.3099999 7.2600002 0
3.01 2.3099999 7.3600001 0
3.01 2.3099999 7.46 0
3.01 2.3099999 7.5599999 0
3.01 2.3099999 7.6599998 0
3.01 2.3099999 7.7600002 0
3.01 2.3099999 7.8600001 0
3.01 2.3099999 7.96 0
3.01 2.3099999 8.0600004 0
3.01 2.3099999 8.1599998 0
3.01 2.3099999 8.2600002 0
3.01 2.3099999 8.3599997 0
3.01 2.3099999 8.46 0
3.01 2.3099999 8.5600004 0
3.01 2.3099999 8.6599998 0
3.01 2.3099999 8.7600002 0
3.01 2.3099999 8.8599997 0
3.01 2.3099999 8.96 0
3.01 2.3099999 9.0600004 0
3.01 2.3099999 9.1599998 0
3.01 2.3099999 9.2600002 0
3.01 2.3099999 9.3599997 0
3.01 2.3099999 9.46 0
3.01 2.3099999 9.5600004 0
3.01 2.3099999 9.6599998 0
3.01 2.3099999 9.7600002 0
3.01 2.3099999 9.8599997 0
3.01 2.3099999 9.96 0
3.01 2.4100001 -0.94 0
3.01 2.4100001 -0.83999997 0
3.01 2.4100001 -0.74000001 0
3.01 2.4100001 -0.63999999 0
3.01 2.4100001 -0.54000002 0
3.01 2.4100001 -0.44 0
3.01 2.4100001 -0.34 0
3.01 2.4100001 -0.23999999 0
3.01 2.4100001 -0.14 0
3.01 2.4100001 -0.039999999 0
3.01 2.4100001 0.059999999 0
3.01 2.4100001 0.16 0
3.01 2.4100001 0.25999999 0
3.01 2.4100001 0.36000001 0
3.01 2.4100001 0.46000001 0
3.01 2.4100001 0.56 0
3.01 2.4100001 0.66000003 0
3.01 2.4100001 0.75999999 0
3.01 2.4100001 0.86000001 0
3.01 2.4100001 0.95999998 0
3.01 2.4100001 1.0599999 0
3.01 2.4100001 1.16 0
3.01 2.4100001 1.26 0
3.01 2.4100001 1.36 0
3.01 2.4100001 1.46 0
3.01 2.4100001 1.5599999 0
3.01 2.4100001 1.66 0
3.01 2.4100001 1.76 0
3.01 2.4100001 1.86 0
3.01 2.4100001 1.96 0
3.01 2.4100001 2.0599999 0
3.01 2.4100001 2.1600001 0
3.01 2.4100001 2.26 0
3.01 2.4100001 2.3599999 0
3.01 2.4100001 2.46 0
3.01 2.4100001 2.5599999 0
3.01 2.4100001 2.6600001 0
3.01 2.4100001 2.76 0
3.01 2.4100001 2.8599999 0
3.01 2.4100001 2.96 0
3.01 2.4100001 3.0599999 0
3.01 2.4100001 3.1600001 0
3.01 2.4100001 3.26 0
3.01 2.4100001 3.3599999 0
3.01 2.4100001 3.46 0
3.01 2.4100001 3.5599999 0
3.01 2.4100001 3.6600001 0
3.01 2.4100001 3.76 0
3.01 2.4100001 3.8599999 0
3.01 2.4100001 3.96 0
3.01 2.4100001 4.0599999 0
3.01 2.4100001 4.1599998 0
3.01 2.4100001 4.2600002 0
3.01 2.4100001 4.3600001 0
3.01 2.4100001 4.46 0
3.01 2.4100001 4.5599999 0
3.01 2.4100001 4.6599998 0
3.01 2.4100001 4.7600002 0
3.01 2.4100001 4.8600001 0
3.01 2.4100001 4.96 0
3.01 2.4100001 5.0599999 0
3.01 2.4100001 5.1599998 0
3.01 2.4100001 5.2600002 0
3.01 2.4100001 5.3600001 0
3.01 2.4100001 5.46 0
3.01 2.4100001 5.5599999 0
3.01 2.4100001 5.6599998 0
3.01 2.4100001 5.7600002 0
3.01 2.4100001 5.8600001 0
3.01 2.4100001 5.96 0
3.01 2.4100001 6.0599999 0
3.01 2.4100001 6.1599998 0
3.01 2.4100001 6.2600002 0
3.01 2.4100001 6.3600001 0
3.01 2.4100001 6.46 0
3.01 2.4100001 6.5599999 0
3.01 2.4100001 6.6599998 0
3.01 2.4100001 6.7600002 0
3.01 2.4100001 6.8600001 0
3.01 2.4100001 6.96 0
3.01 2.4100001 7.0599999 0
3.01 2.4100001 7.1599998 0
3.01 2.4100001 7.2600002 0
3.01 2.4100001 7.3600001 0
3.01 2.4100001 7.46 0
3.01 2.4100001 7.5599999 0
3.01 2.4100001 7.6599998 0
3.01 2.4100001 7.7600002 0
3.01 2.4100001 7.8600001 0
3.01 2.4100001 7.96 0
3.01 2.4100001 8.0600004 0
3.01 2.4100001 8.1599998 0
3.01 2.4100001 8.2600002 0
3.01 2.4100001 8.3599997 0
3.01 2.4100001 8.46 0
3.01 2.4100001 8.5600004 0
3.01 2.4100001 8.6599998 0
3.01 2.4100001 8.7600002 0
3.01 2.4100001 8.8599997 0
3.01 2.4100001 8.96 0
3.01 2.4100001 9.0600004 0
3.01 2.4100001 9.1599998 0
3.01 2.4100001 9.2600002 0
3.01 2.4100001 9.3599997 0
3.01 2.4100001 9.46 0
3.01 2.4100001 9.5600004 0
3.01 2.4100001 9.6599998 0
3.01 2.4100001 9.7600002 0
3.01 2.4100001 9.8599997 0
3.01 2.4100001 9.96 0
3.01 2.51 -0.94 0
3.01 2.51 -0.83999997 0
3.01 2.51 -0.74000001 0
3.01 2.51 -0.63999999 0
3.01 2.51 -0.54000002 0
3.01 2.51 -0.44 0
3.01 2.51 -0.34 0
3.01 2.51 -0.23999999 0
3.01 2.51 -0.14 0
3.01 2.51 -0.039999999 0
3.01 2.51 0.059999999 0
3.01 2.51 0.16 0
3.01 2.51 0.25999999 0
3.01 2.51 0.36000001 0
3.01 2.51 0.46000001 0
3.01 2.51 0.56 0
3.01 2.51 0.66000003 0
3.01 2.51 0.75999999 0
3.01 2.51 0.86000001 0
3.01 2.51 0.95999998 0
3.01 2.51 1.0599999 0
3.01 2.51 1.16 0
3.01 2.51 1.26 0
3.01 2.51 1.36 0
3.01 2.51 1.46 0
3.01 2.51 1.5599999 0
3.01 2.51 1.66 0
3.01 2.51 1.76 0
3.01 2.51 1.86 0
3.01 2.51 1.96 0
3.01 2.51 2.0599999 0
3.01 2.51 2.1600001 0
3.01 2.51 2.26 0
3.01 2.51 2.3599999 0
3.01 2.51 2.46 0
3.01 2.51 2.5599999 0
3.01 2.51 2.6600001 0
3.01 2.51 2.76 0
3.01 2.51 2.8599999 0
3.01 2.51 2.96 0
3.01 2.51 3.0599999 0
3.01 2.51 3.1600001 0
3.01 2.51 3.26 0
3.01 2.51 3.3599999 0
3.01 2.51 3.46 0
3.01 2.51 3.5599999 0
3.01 2.51 3.6600001 0
3.01 2.51 3.76 0
3.01 2.51 3.8599999 0
3.01 2.51 3.96 0
3.01 2.51 4.0599999 0
3.01 2.51 4.1599998 0
3.01 2.51 4.2600002 0
3.01 2.51 4.3600001 0
3.01 2.51 4.46 0
3.01 2.51 4.5599999 0
3.01 2.51 4.6599998 0
3.01 2.51 4.7600002 0
3.01 2.51 4.8600001 0
3.01 2.51 4.96 0
3.01 2.51 5.0599999 0
3.01 2.51 5.1599998 0
3.01 2.51 5.2600002 0
3.01 2.51 5.3600001 0
3.01 2.51 5.46 0
3.01 2.51 5.5599999 0
3.01 2.51 5.6599998 0
3.01 2.51 5.7600002 0
3.01 2.51 5.8600001 0
3.01 2.51 5.96 0
3.01 2.51 6.0599999 0
3.01 2.51 6.1599998 0
3.01 2.51 6.2600002 0
3.01 2.51 6.3600001 0
3.01 2.51 6.46 0
3.01 2.51 6.5599999 0
3.01 2.51 6.6599998 0
3.01 2.51 6.7600002 0
3.01 2.51 6.8600001 0
3.01 2.51 6.96 0
3.01 2.51 7.0599999 0
3.01 2.51 7.1599998 0
3.01 2.51 7.2600002 0
3.01 2.51 7.3600001 0
3.01 2.51 7.46 0
3.01 2.51 7.5599999 0
3.01 2.51 7.6599998 0
3.01 2.51 7.7600002 0
3.01 2.51 7.8600001 0
3.01 2.51 7.96 0
3.01 2.51 8.0600004 0
3.01 2.51 8.1599998 0
3.01 2.51 8.2600002 0
3.01 2.51 8.3599997 0
3.01 2.51 8.46 0
3.01 2.51 8.5600004 0
3.01 2.51 8.6599998 0
3.01 2.51 8.7600002 0
3.01 2.51 8.8599997 0
3.01 2.51 8.96 0
3.01 2.51 9.0600004 0
3.01 2.51 9.1599998 0
3.01 2.51 9.2600002 0
3.01 2.51 9.3599997 0
3.01 2.51 9.46 0
3.01 2.51 9.5600004 0
3.01 2.51 9.6599998 0
3.01 2.51 9.7600002 0
3.01 2.51 9.8599997 0
3.01 2.51 9.96 0
3.01 2.6099999 -0.94 0
3.01 2.6099999 -0.83999997 0
3.01 2.6099999 -0.74000001 0
3.01 2.6099999 -0.63999999 0
3.01 2.6099999 -0.54000002 0
3.01 2.6099999 -0.44 0
3.01 2.6099999 -0.34 0
3.01 2.6099999 -0.23999999 0
3.01 2.6099999 -0.14 0
3.01 2.6099999 -0.039999999 0
3.01 2.6099999 0.059999999 0
3.01 2.6099999 0.16 0
3.01 2.6099999 0.25999999 0
3.01 2.6099999 0.36000001 0
3.01 2.6099999 0.46000001 0
3.01 2.6099999 0.56 0
3.01 2.6099999 0.66000003 0
3.01 2.6099999 0.75999999 0
3.01 2.6099999 0.86000001 0
3.01 2.6099999 0.95999998 0
3.01 2.6099999 1.0599999 0
3.01 2.6099999 1.16 0
3.01 2.6099999 1.26 0
3.01 2.6099999 1.36 0
3.01 2.6099999 1.46 0
3.01 2.6099999 1.5599999 0
3.01 2.6099999 1.66 0
3.01 2.6099999 1.76 0
3.01 2.6099999 1.86 0
3.01 2.6099999 1.96 0
3.01 2.6099999 2.0599999 0
3.01 2.6099999 2.1600001 0
3.01 2.6099999 2.26 0
3.01 2.6099999 2.3599999 0
3.01 2.6099999 2.46 0
3.01 2.6099999 2.5599999 0
3.01 2.6099999 2.6600001 0
3.01 2.6099999 2.76 0
3.01 2.6099999 2.8599999 0
3.01 2.6099999 2.96 0
3.01 2.6099999 3.0599999 0
3.01 2.6099999 3.1600001 0
3.01 2.6099999 3.26 0
3.01 2.6099999 3.3599999 0
3.01 2.6099999 3.46 0
3.01 2.6099999 3.5599999 0
3.01 2.6099999 3.6600001 0
3.01 2.6099999 3.76 0
3.01 2.6099999 3.8599999 0
3.01 2.6099999 3.96 0
3.01 2.6099999 4.0599999 0
3.01 2.6099999 4.1599998 0
3.01 2.6099999 4.2600002 0
3.01 2.6099999 4.3600001 0
3.01 2.6099999 4.46 0
3.01 2.6099999 4.5599999 0
3.01 2.6099999 4.6599998 0
3.01 2.6099999 4.7600002 0
3.01 2.6099999 4.8600001 0
3.01 2.6099999 4.96 0
3.01 2.6099999 5.0599999 0
3.01 2.6099999 5.1599998 0
3.01 2.6099999 5.2600002 0
3.01 2.6099999 5.3600001 0
3.01 2.6099999 5.46 0
3.01 2.6099999 5.5599999 0
3.01 2.6099999 5.6599998 0
3.01 2.6099999 5.7600002 0
3.01 2.6099999 5.8600001 0
3.01 2.6099999 5.96 0
3.01 2.6099999 6.0599999 0
3.01 2.6099999 6.1599998 0
3.01 2.6099999 6.2600002 0
3.01 2.6099999 6.3600001 0
3.01 2.6099999 6.46 0
3.01 2.6099999 6.5599999 0
3.01 2.6099999 6.6599998 0
3.01 2.6099999 6.7600002 0
3.01 2.6099999 6.8600001 0
3.01 2.6099999 6.96 0
3.01 2.6099999 7.0599999 0
3.01 2.6099999 7.1599998 0
3.01 2.6099999 7.2600002 0
3.01 2.6099999 7.3600001 0
3.01 2.6099999 7.46 0
3.01 2.6099999 7.5599999 0
3.01 2.6099999 7.6599998 0
3.01 2.6099999 7.7600002 0
3.01 2.6099999 7.8600001 0
3.01 2.6099999 7.96 0
3.01 2.6099999 8.0600004 0
3.01 2.6099999 8.1599998 0
3.01 2.6099999 8.2600002 0
3.01 2.6099999 8.3599997 0
3.01 2.6099999 8.46 0
